ply
format ascii 1.0
element vertex 427
property float x
property float y
property float z
property uchar diffuse_red
property uchar diffuse_green
property uchar diffuse_blue
end_header
0.135481 -0.225010 1.794619 183 176 160
0.079849 -0.228697 1.826734 175 168 150
0.095234 -0.219787 1.792765 153 137 124
0.162087 -0.224170 1.832804 161 159 136
-0.071463 -0.204446 1.716130 191 169 158
-0.025267 -0.206130 1.734454 183 166 159
-0.243661 -0.195179 1.650899 174 147 136
-0.211415 -0.192969 1.680188 184 168 155
-0.158853 -0.197987 1.678877 175 161 152
-0.272340 -0.195977 1.665834 165 157 144
-0.228055 -0.193117 1.650473 167 148 141
-0.184579 -0.195465 1.670253 160 152 150
0.118894 -0.203658 1.799376 48 58 59
0.141074 -0.204133 1.812169 74 81 63
0.163017 -0.203915 1.818969 128 127 106
0.006273 -0.187792 1.705964 88 83 80
-0.024787 -0.181243 1.701475 84 70 70
-0.255027 -0.179949 1.680983 119 93 92
0.116985 -0.190729 1.802658 95 81 81
-0.037168 -0.176012 1.718185 107 103 100
0.001260 -0.173765 1.709806 59 60 55
-0.227089 -0.166118 1.650480 66 56 55
0.143787 -0.176693 1.819551 68 57 55
-0.023647 -0.163329 1.691584 46 56 55
0.000258 -0.164268 1.750260 63 62 57
-0.271940 -0.155196 1.669340 150 149 129
-0.226410 -0.152797 1.652597 61 45 46
-0.004777 -0.158139 1.708276 70 72 69
0.071515 -0.157271 1.729440 139 119 118
0.158085 -0.167089 1.836344 71 77 89
-0.271731 -0.149980 1.668052 149 146 129
0.013476 -0.154156 1.727797 175 166 159
0.041350 -0.151483 1.745238 192 209 191
-0.090113 -0.145022 1.687011 79 78 83
-0.017785 -0.145090 1.702664 191 188 173
-0.032897 -0.135528 1.657398 188 184 159
0.073329 -0.139748 1.655557 165 174 171
-0.231673 -0.137508 1.655412 83 79 80
0.111196 -0.141740 1.729174 115 105 93
0.056223 -0.133442 1.639811 178 194 181
-0.015474 -0.134649 1.668037 175 178 171
-0.106677 -0.130947 1.682128 92 87 94
0.047265 -0.128289 1.630370 145 160 153
0.036614 -0.126407 1.626304 133 148 143
0.091969 -0.132117 1.693947 154 160 156
0.023167 -0.123152 1.623071 179 176 157
0.060296 -0.125204 1.672278 217 225 212
-0.051949 -0.123891 1.673070 189 192 183
0.071140 -0.118462 1.627698 142 160 160
-0.013385 -0.119739 1.651845 168 159 154
0.063234 -0.115529 1.621593 148 148 140
-0.080211 -0.115685 1.667295 57 57 57
0.104844 -0.121031 1.692538 201 213 199
0.047640 -0.110742 1.610637 134 115 111
0.137471 -0.119239 1.726838 165 166 158
-0.037649 -0.113942 1.649722 132 125 119
0.092436 -0.110126 1.631543 212 223 207
-0.268291 -0.111556 1.671123 177 170 152
-0.129601 -0.116302 1.696632 114 105 106
0.001219 -0.110331 1.652404 208 186 165
0.143605 -0.118796 1.727487 100 96 95
0.083940 -0.114897 1.673320 201 212 204
0.131203 -0.115505 1.711627 163 173 162
-0.060538 -0.102184 1.667413 136 127 118
-0.095963 -0.103164 1.667957 35 40 33
0.054082 -0.098754 1.604431 137 119 117
-0.075672 -0.096703 1.655410 107 111 110
-0.008491 -0.100655 1.640569 117 112 109
0.033106 -0.091271 1.595169 208 209 203
-0.268286 -0.096321 1.670978 148 150 137
0.091428 -0.091616 1.613680 123 137 140
0.144986 -0.099544 1.731693 176 185 164
-0.037290 -0.092454 1.678295 115 103 107
0.122688 -0.087619 1.637984 175 178 159
0.064200 -0.084117 1.597939 134 142 131
-0.065485 -0.084895 1.667662 135 121 112
-0.110798 -0.085673 1.669367 33 39 39
-0.084752 -0.082153 1.660665 126 103 95
0.105064 -0.082427 1.618891 205 215 204
0.157695 -0.091211 1.737204 182 196 181
-0.225875 -0.083378 1.655724 59 44 47
0.047191 -0.079943 1.595641 130 112 102
-0.005972 -0.085979 1.771483 156 138 134
0.030105 -0.075797 1.585402 128 110 100
0.116047 -0.077928 1.625892 203 220 201
0.130256 -0.074101 1.636178 118 119 114
0.012351 -0.070717 1.583772 143 127 114
0.070584 -0.070135 1.593532 113 103 93
0.153834 -0.068014 1.672227 180 190 179
0.115904 -0.067100 1.624077 116 122 120
0.034696 -0.062792 1.582104 126 103 89
0.105371 -0.063367 1.609144 76 85 82
0.122319 -0.059198 1.620113 147 159 139
-0.034228 -0.062784 1.623383 123 107 108
0.137329 -0.055327 1.639417 152 158 144
0.001174 -0.053046 1.577657 155 124 104
0.079210 -0.054362 1.597276 98 103 99
-0.226566 -0.056489 1.660719 72 56 56
-0.267860 -0.055725 1.674458 189 181 162
0.109204 -0.051007 1.609776 89 86 71
0.179565 -0.058050 1.792127 165 176 168
-0.092782 -0.055018 1.662389 96 92 91
-0.225097 -0.039522 1.659677 62 47 52
-0.126069 -0.051802 1.663172 42 42 42
0.029947 -0.042471 1.571043 164 139 117
0.056164 -0.047248 1.583606 155 142 126
0.041077 -0.043396 1.577044 105 106 98
0.092261 -0.044022 1.595360 140 145 139
0.104084 -0.043729 1.603703 108 109 101
0.125105 -0.044385 1.619273 115 111 100
0.158844 -0.041776 1.662013 156 163 155
-0.029544 -0.039831 1.579524 115 88 79
0.070278 -0.038074 1.586639 82 85 78
-0.268465 -0.040551 1.678152 168 161 153
0.023402 -0.034982 1.572913 75 78 69
0.059855 -0.036282 1.582791 49 52 57
0.146657 -0.040052 1.669903 93 116 106
0.082600 -0.034852 1.589865 93 83 81
0.042944 -0.033807 1.577133 124 127 116
0.005791 -0.032591 1.570750 104 95 90
0.096975 -0.033580 1.596024 118 123 117
0.127047 -0.030086 1.619725 115 131 130
0.102199 -0.027534 1.603665 72 66 52
0.015975 -0.025997 1.571654 138 141 130
-0.027620 -0.025839 1.577103 82 72 71
0.116775 -0.025343 1.609613 69 71 68
0.157613 -0.024070 1.660812 159 165 155
0.183424 -0.023856 1.787977 153 158 152
0.146176 -0.019576 1.641720 118 121 112
0.010435 -0.016646 1.572473 95 79 64
0.088306 -0.015767 1.591767 69 74 78
-0.037813 -0.014818 1.576196 137 98 99
0.066373 -0.014435 1.582409 122 125 118
-0.128315 -0.015813 1.653707 48 50 49
0.050354 -0.012904 1.576988 91 99 88
0.022412 -0.010512 1.569324 73 65 62
0.035497 -0.010587 1.576127 86 90 102
-0.064941 -0.009803 1.626680 97 80 64
-0.002540 -0.006091 1.572493 137 109 97
0.081580 -0.005388 1.588480 164 173 168
0.052267 -0.004275 1.578450 85 98 89
0.076863 -0.004301 1.587514 147 163 150
0.110760 -0.001567 1.603821 157 171 158
0.043861 -0.001218 1.576524 55 54 50
0.064567 -0.000167 1.583537 145 165 154
0.091487 0.002422 1.597424 150 153 144
0.147636 0.001388 1.647321 113 139 138
0.027163 0.002563 1.576665 106 107 99
0.015993 0.005277 1.573603 70 62 60
-0.085713 0.006306 1.678011 125 141 140
-0.113808 0.006581 1.641340 102 111 106
0.123338 0.012233 1.620900 73 94 89
-0.020190 0.013916 1.576392 44 47 52
0.031205 0.018041 1.588591 150 127 111
0.058933 0.015663 1.582383 94 102 91
0.019668 0.016209 1.574417 58 51 45
0.095479 0.022115 1.601916 95 104 103
-0.088134 0.023796 1.631614 79 86 96
0.171377 0.021161 1.763704 112 147 166
-0.107589 0.025472 1.635734 57 79 93
-0.016474 0.026803 1.582227 94 96 91
-0.038961 0.027183 1.585210 68 72 71
0.003955 0.027407 1.576793 74 80 70
0.075284 0.028418 1.593706 100 104 105
-0.073776 0.027670 1.651588 112 132 123
0.063949 0.031616 1.591328 92 91 96
0.023444 0.032219 1.578824 75 74 54
0.149095 0.032540 1.710303 130 152 165
0.025381 0.037259 1.582970 82 88 76
0.063092 0.039064 1.593424 80 82 79
0.036605 0.039138 1.584910 54 52 53
-0.051741 0.044245 1.636276 95 105 106
0.026322 0.041858 1.583754 80 84 70
0.122602 0.045969 1.636540 93 112 116
0.010491 0.044847 1.585361 100 106 104
0.046048 0.045258 1.588195 33 37 49
0.053750 0.045494 1.594750 53 54 58
0.085565 0.049948 1.610321 103 113 123
-0.010045 0.049938 1.588532 100 105 98
0.068015 0.050509 1.598879 108 116 118
0.098331 0.052789 1.617803 88 86 87
0.123873 0.055392 1.640837 73 85 101
-0.097586 0.060878 1.645954 76 78 77
-0.077197 0.060456 1.643775 39 58 64
0.107622 0.061284 1.585466 82 80 102
0.067452 0.063270 1.607656 65 72 65
0.020899 0.063635 1.593677 135 146 140
0.128347 0.066073 1.661096 56 67 97
0.141123 0.074337 1.706349 93 114 131
0.098875 0.067953 1.627121 75 69 69
0.046475 0.068313 1.602915 105 115 104
-0.261560 0.071926 1.684562 143 145 142
-0.039813 0.071851 1.693534 72 83 79
0.127031 0.079576 1.765062 61 56 78
0.034162 0.072585 1.601551 64 74 66
-0.068712 0.075282 1.647083 98 113 106
0.078527 0.077222 1.622357 70 64 68
0.069719 0.077950 1.617386 56 69 62
0.098511 0.080920 1.636101 57 46 50
0.132542 0.094494 1.755587 76 81 121
-0.030979 0.086801 1.650184 59 65 63
-0.075705 0.092332 1.676121 54 58 61
0.071198 0.090010 1.628246 72 73 67
-0.057476 0.090872 1.634503 56 75 73
0.119289 0.097406 1.759374 45 46 74
0.057692 0.093014 1.626909 101 107 105
0.043317 0.106050 1.784700 60 66 62
0.152874 0.102557 1.843019 108 100 123
0.098428 0.105967 1.736917 71 61 85
-0.097770 0.099602 1.695353 71 71 61
0.057649 0.103811 1.685396 58 68 67
0.011726 0.103490 1.628154 64 73 70
0.071231 0.108184 1.652046 56 56 54
-0.065237 0.102043 1.627693 32 33 35
-0.017029 0.109611 1.705304 44 45 50
0.058273 0.111959 1.638507 51 49 52
-0.038617 0.111983 1.650512 58 59 61
0.044706 0.112026 1.642994 61 71 63
-0.262022 0.118911 1.688245 190 180 168
0.073803 0.122713 1.709269 32 32 40
-0.000766 0.121329 1.653941 54 58 61
-0.261129 0.132736 1.688503 126 147 166
0.095765 0.148726 1.762203 59 52 59
0.074515 0.145972 1.759874 35 47 47
0.060325 0.152702 1.730305 43 46 35
-0.196151 0.152037 1.707991 96 78 76
-0.219701 0.155850 1.675516 58 48 46
-0.171501 0.156622 1.695598 118 89 83
0.081658 0.166382 1.744675 35 49 60
0.093744 0.162848 1.746366 58 67 64
-0.047981 0.159864 1.704903 27 23 22
0.151690 0.180576 1.853052 116 128 176
0.011377 0.173203 1.722807 33 38 32
-0.258470 0.172977 1.691157 136 153 209
0.086498 0.173266 1.681779 29 34 38
0.020581 0.180064 1.727782 59 60 62
-0.219844 0.175149 1.675868 72 53 47
-0.023261 0.182706 1.731752 31 33 32
-0.179417 0.186131 1.695256 81 50 47
-0.258854 0.191186 1.693273 142 185 238
-0.035819 0.200636 1.757471 51 42 37
0.020663 0.196837 1.740332 54 54 52
0.155186 0.210984 1.855344 139 157 219
-0.098736 0.195412 1.636805 81 77 76
0.008338 0.203064 1.692827 82 65 47
-0.038925 0.190471 1.586112 107 92 63
0.013027 0.201308 1.723060 80 72 49
-0.168468 0.204841 1.695324 89 74 67
-0.068691 0.192861 1.561984 132 141 124
-0.022389 0.199011 1.607255 132 115 71
0.138618 0.226055 1.837612 66 67 62
-0.218332 0.210149 1.665257 88 67 64
0.135541 0.234420 1.836568 66 52 52
-0.199304 0.210920 1.691806 84 56 52
0.014564 0.208427 1.621878 92 92 82
-0.050358 0.201774 1.561133 58 71 64
-0.093235 0.205957 1.573507 142 131 113
-0.071613 0.205038 1.565245 108 107 86
-0.257376 0.222310 1.696122 131 190 248
-0.038778 0.206222 1.575418 154 156 142
0.041905 0.216279 1.646204 129 126 119
0.050698 0.236610 1.780553 108 109 103
-0.057183 0.210537 1.573385 74 78 61
-0.009731 0.216731 1.647325 71 107 79
0.066982 0.227348 1.692061 113 112 108
0.088403 0.233799 1.674746 157 164 146
0.002638 0.230165 1.727110 58 94 82
-0.044186 0.220745 1.576490 43 52 33
-0.110270 0.209433 1.501418 212 198 149
-0.058244 0.220404 1.577200 81 71 70
0.019594 0.240749 1.668577 78 113 91
0.068195 0.227442 1.627645 94 106 86
0.194946 0.211453 1.503272 153 180 210
0.133356 0.257777 1.841110 123 126 115
0.175071 0.213202 1.507873 162 224 255
0.201330 0.213854 1.505639 142 165 197
-0.080822 0.222754 1.547533 138 122 96
-0.091225 0.221909 1.538086 120 93 48
-0.050239 0.230865 1.591025 39 34 28
0.086012 0.237922 1.635931 175 178 161
-0.025868 0.232268 1.586171 38 38 36
0.178238 0.219668 1.480685 55 66 88
-0.103572 0.223862 1.520082 159 134 80
0.099325 0.253967 1.695151 101 136 130
0.188683 0.223107 1.487586 39 57 123
0.068911 0.242553 1.617360 121 129 118
0.199881 0.222955 1.486835 59 90 145
0.210630 0.222578 1.502833 51 78 131
-0.002534 0.236903 1.580983 42 39 22
0.003133 0.240796 1.589372 44 39 20
0.010852 0.246156 1.624975 19 29 18
0.080728 0.238156 1.551722 128 132 115
0.176576 0.230074 1.481446 58 59 90
0.183887 0.231500 1.484023 191 197 223
-0.012001 0.242952 1.575373 180 171 138
0.193106 0.233413 1.488094 90 101 157
0.217346 0.232007 1.507065 60 80 89
-0.046160 0.244842 1.573726 62 58 49
0.205933 0.231881 1.487385 120 127 197
0.163795 0.231250 1.469595 99 131 169
-0.061018 0.248599 1.576047 51 51 53
0.090831 0.249872 1.551283 51 71 69
0.126715 0.254326 1.620433 55 95 68
-0.014451 0.252439 1.551494 131 116 93
-0.100291 0.250694 1.510752 141 118 77
0.094329 0.261660 1.547848 102 119 139
0.216474 0.246718 1.468955 55 86 133
-0.046996 0.263207 1.567664 41 39 27
0.235345 0.253666 1.495561 175 201 228
-0.106413 0.258355 1.510123 142 116 81
-0.100031 0.259617 1.519505 173 147 112
-0.062966 0.269848 1.576033 27 25 26
0.019918 0.263517 1.524114 138 137 132
0.144631 0.261112 1.474797 189 203 188
0.242507 0.267125 1.507269 75 111 173
-0.202412 0.300801 1.638922 54 66 64
0.206511 0.259387 1.453706 116 146 184
-0.104829 0.269245 1.501391 159 145 108
-0.056466 0.283335 1.581715 36 37 21
0.141860 0.267334 1.472373 202 218 217
0.025861 0.271642 1.512997 111 118 110
0.008239 0.275773 1.515815 201 212 214
0.222672 0.269591 1.469705 94 128 165
-0.045789 0.278646 1.502596 230 242 242
-0.102404 0.280005 1.502250 100 87 52
0.023851 0.278585 1.488490 185 189 201
0.045301 0.282963 1.502635 49 54 58
0.134629 0.278596 1.471951 192 206 206
0.123828 0.282139 1.474744 185 195 194
-0.102351 0.283631 1.490610 136 130 130
0.082984 0.286537 1.512497 112 117 121
0.036622 0.278854 1.491410 211 223 213
-0.051292 0.282488 1.459674 228 242 242
-0.042491 0.286003 1.480553 209 222 228
0.026023 0.282340 1.459193 233 247 248
0.032971 0.281878 1.489183 235 242 248
0.052806 0.292564 1.514010 33 24 27
0.135804 0.288429 1.473165 192 200 202
-0.094158 0.286058 1.459740 131 136 130
-0.071455 0.284215 1.449314 224 240 239
0.069640 0.293849 1.499005 29 29 29
0.280485 0.318132 1.602452 124 102 148
0.102693 0.291587 1.478067 205 225 216
0.186926 0.288342 1.447593 66 90 136
0.013690 0.284618 1.428049 208 222 235
0.232485 0.301245 1.504905 46 64 88
0.208777 0.289549 1.445551 65 89 137
-0.063578 0.286364 1.424505 149 141 154
-0.006429 0.286549 1.416657 232 246 247
0.095813 0.302004 1.487464 30 32 31
0.247359 0.308250 1.534007 133 139 137
0.173564 0.297482 1.456551 39 40 70
-0.036347 0.287900 1.411928 206 221 228
-0.008745 0.286915 1.395660 162 165 148
0.056919 0.304580 1.476693 58 49 50
0.105594 0.305545 1.476399 69 68 64
0.123509 0.307164 1.459964 151 140 156
0.163811 0.311864 1.483681 25 29 38
0.217028 0.306724 1.466822 49 55 45
0.132980 0.307676 1.453833 121 104 138
0.138884 0.307510 1.464807 52 40 50
0.145414 0.311169 1.478760 54 54 62
0.220525 0.301574 1.416212 107 102 96
-0.005410 0.298957 1.399415 127 133 123
0.013516 0.298471 1.396999 168 170 146
-0.020390 0.299739 1.403326 102 103 98
0.199081 0.310357 1.456405 75 77 66
0.189457 0.313121 1.432143 117 127 126
0.311686 0.317380 1.461403 150 135 166
0.161310 0.315863 1.429220 110 115 118
0.325223 0.320478 1.451189 168 182 255
0.006916 0.305892 1.389045 116 118 104
0.170283 0.313894 1.429767 145 143 144
0.145007 0.315669 1.427963 144 136 133
0.330921 0.326338 1.457337 123 112 172
0.296380 0.328292 1.465110 141 127 124
-0.020914 0.309624 1.386524 102 104 101
0.180420 0.323945 1.428147 142 153 147
0.113422 0.318088 1.392959 53 59 55
0.208672 0.321279 1.392522 147 138 157
0.098120 0.319143 1.386481 70 68 71
0.320837 0.336060 1.451527 22 26 51
0.001099 0.321749 1.387036 82 68 55
0.081448 0.320568 1.379293 74 74 82
0.199568 0.328144 1.390460 120 126 138
0.066397 0.321149 1.368807 124 131 137
-0.010013 0.323323 1.366843 57 51 53
0.043724 0.321919 1.365551 109 120 126
0.243570 0.334610 1.415001 44 49 69
0.216507 0.339150 1.398640 62 72 82
0.129693 0.343939 1.427066 171 162 155
-0.093466 0.326052 1.348055 140 121 127
0.176798 0.336329 1.381477 39 64 94
0.197271 0.339047 1.387902 68 75 93
0.096013 0.329291 1.343875 163 149 149
0.339969 0.356043 1.458258 54 71 123
0.240804 0.349670 1.418224 126 147 174
0.330647 0.360629 1.453143 45 43 64
0.316177 0.360726 1.449452 88 88 96
0.339258 0.363633 1.456839 54 85 139
0.120454 0.339122 1.351978 49 59 108
0.157139 0.347352 1.388963 88 103 122
-0.097284 0.343635 1.351393 73 92 132
0.037167 0.336856 1.336315 162 167 186
0.179223 0.359026 1.421190 24 35 39
-0.004201 0.334006 1.305770 160 159 155
0.009463 0.333244 1.305027 160 167 186
0.142583 0.352101 1.372923 127 161 173
0.189122 0.356278 1.387943 104 109 112
-0.045705 0.331927 1.279416 156 166 142
0.331113 0.379474 1.459371 55 122 190
0.121318 0.356144 1.361241 123 154 175
0.173318 0.366320 1.385640 116 150 187
-0.103245 0.345856 1.318269 99 102 143
-0.001373 0.341852 1.296762 46 66 101
0.178170 0.369067 1.391200 56 84 124
0.142511 0.363657 1.372898 123 147 171
0.186219 0.371074 1.404934 112 128 144
0.090052 0.359787 1.350165 118 135 153
-0.066566 0.339690 1.273836 100 133 150
-0.060904 0.350803 1.282344 62 79 107
-0.072152 0.379110 1.305699 143 157 158
-0.046900 0.377150 1.290753 94 105 111
-0.002849 0.384987 1.306552 70 69 83
-0.060434 0.386249 1.291467 126 132 148
-0.002003 0.394446 1.305545 36 46 81
-0.065674 0.398587 1.284189 69 123 169
