ply
format ascii 1.0
element vertex 562
property float x
property float y
property float z
property uchar diffuse_red
property uchar diffuse_green
property uchar diffuse_blue
end_header
0.227450 0.255535 1.690823 59 90 145
-0.038304 0.101485 2.091127 230 242 242
-0.019098 -0.165615 2.058476 175 178 171
0.027152 0.316896 1.719101 185 189 201
0.219731 0.330608 1.612919 21 25 37
0.139686 -0.132878 2.024794 144 146 143
0.160959 0.411913 1.548940 123 147 171
0.029777 -0.179046 2.086844 161 172 166
0.048571 -0.178357 2.050099 192 209 191
0.162139 -0.049758 2.011927 118 119 114
0.173201 0.067224 1.968348 130 152 165
0.252775 0.308284 1.666977 94 128 165
-0.071141 0.123765 2.038804 56 75 73
0.015334 0.317806 1.588464 208 222 235
0.055214 -0.128400 1.866746 134 115 111
-0.112228 -0.071541 2.009662 96 92 91
0.025783 -0.145086 2.065168 124 118 120
0.077514 0.265736 1.287491 128 132 115
-0.112223 0.067439 2.114364 79 86 96
0.214817 0.255751 1.692616 39 57 123
0.016057 -0.155026 2.210138 166 160 144
-0.082387 0.326755 1.669825 224 240 239
0.164864 0.219572 1.220906 153 180 210
0.016975 0.242948 1.886015 92 92 82
0.018515 0.006396 1.820982 70 62 60
0.101967 -0.017941 1.837884 69 74 78
0.151733 0.089586 1.663533 210 226 223
-0.045174 -0.139760 1.978661 132 125 119
-0.319082 -0.065935 1.994717 189 181 162
0.361789 0.404937 1.635844 83 97 126
0.265042 0.008227 1.853909 162 225 255
0.148239 0.227895 1.203139 162 224 255
0.024213 0.127179 1.876608 43 61 63
0.001476 -0.204061 2.005469 59 60 55
0.042523 -0.146900 1.888805 133 148 143
-0.237444 0.384349 1.648452 110 178 249
0.134256 -0.090241 1.881031 203 220 201
-0.103793 0.221189 1.743843 142 131 113
0.289371 0.011851 1.889646 169 222 255
0.013667 0.120840 1.894463 64 73 70
-0.015630 -0.139748 1.928484 168 159 154
-0.020034 0.111395 1.958887 44 45 50
0.219835 0.267545 1.692967 90 101 157
0.245756 0.282162 1.666400 55 86 133
0.110331 0.025978 1.850858 95 104 103
-0.102587 -0.109646 2.007444 126 103 95
0.110066 -0.160029 2.027432 154 160 156
-0.041773 -0.090902 1.894427 115 103 107
0.172464 0.384049 2.066426 185 195 194
0.041046 -0.011968 1.822232 86 90 102
-0.313754 0.054951 2.007908 168 161 153
-0.088715 -0.113148 1.940826 107 111 110
0.197215 0.339773 1.653533 39 40 70
-0.308325 0.205338 2.016897 136 153 209
0.007399 -0.164767 2.010080 173 186 176
0.058181 -0.014637 1.821856 91 99 88
0.046739 0.292134 1.981128 211 223 213
-0.216896 0.408674 1.626686 72 128 202
0.281600 0.234341 1.939635 92 143 196
-0.045280 0.031830 1.842688 68 72 71
0.170966 0.001972 1.907512 113 139 138
0.087463 -0.169011 1.974858 165 174 171
0.025921 -0.011882 1.814582 73 65 62
-0.116207 0.300844 1.764639 173 147 112
0.083079 0.105549 1.944498 56 56 54
0.142600 0.014557 1.873871 73 94 89
0.267776 0.298252 1.672789 133 139 137
-0.097581 0.089790 2.090914 39 58 64
0.005513 0.316661 1.597252 116 118 104
-0.067772 0.256375 1.835042 81 71 70
0.206269 -0.010847 2.123479 112 147 166
-0.035862 0.081611 1.883169 59 65 63
0.173279 0.283126 1.722409 144 136 133
-0.123609 0.299211 1.753250 142 116 81
0.003106 0.068325 2.049854 63 74 70
0.029941 0.324447 1.705058 233 247 248
-0.071810 -0.132607 1.974294 136 127 118
0.235276 0.364369 1.568507 147 138 157
-0.077653 -0.021946 1.910935 130 116 113
0.051125 0.125713 2.105057 60 66 62
0.166188 -0.241814 2.134734 74 81 63
0.064346 -0.150011 1.876137 178 194 181
-0.153811 0.328916 2.161063 73 92 132
-0.056169 0.084112 2.019952 86 94 96
0.121765 -0.073202 1.859491 76 85 82
0.091022 0.090081 1.879883 70 64 68
0.037099 0.166668 2.155127 184 184 172
0.111882 -0.100532 1.970122 123 137 140
0.202894 0.266981 1.700428 58 59 90
-0.519512 0.592362 3.813820 133 113 106
0.107519 0.266551 1.401289 207 222 219
0.078111 0.073767 1.861220 65 72 65
-0.041191 -0.022971 0.858781 113 104 95
-0.150956 -0.018407 1.945638 48 50 49
0.017174 -0.099487 2.204592 143 127 114
-0.069500 0.045202 1.935959 50 49 63
0.082487 -0.137534 1.887346 142 160 160
-0.000533 -0.033059 2.147465 122 109 101
0.016489 -0.186154 2.112147 175 166 159
0.095384 -0.040054 1.835838 93 83 81
0.162524 0.025658 1.789264 118 121 112
-0.400280 0.068982 2.828075 116 106 114
-0.042843 -0.051205 2.433396 82 72 71
0.039619 0.084573 1.856407 64 74 66
-0.083322 0.238368 1.820861 108 107 86
-0.129618 0.052281 1.986058 57 79 93
-0.021360 -0.177441 2.043541 191 188 173
0.152046 0.230065 1.199137 55 66 88
0.063706 0.390318 2.150643 49 54 58
0.113799 0.061645 1.871926 88 86 87
-0.236508 0.404518 1.654161 140 197 250
-0.319467 -0.089964 1.993530 148 150 137
-0.045786 0.131976 1.955416 58 59 61
-0.011648 0.058251 1.843805 100 105 98
-0.005302 -0.037471 2.276234 117 112 109
0.062625 -0.114366 1.857854 137 119 117
0.373570 0.411631 1.639451 45 43 64
-0.093967 0.258610 1.798749 138 122 96
0.144674 0.081420 1.673822 197 206 205
-0.078680 0.019842 1.948438 128 110 106
0.107488 -0.176767 2.068284 102 87 84
-0.041937 -0.157176 1.991552 174 180 170
-0.079895 -0.117542 2.031016 135 121 112
0.239953 0.289174 1.485572 83 117 178
0.040202 -0.097819 2.113839 128 110 100
-0.311433 0.157572 2.013531 126 147 166
0.128522 0.361313 1.577027 53 59 55
0.091073 -0.061772 1.836173 98 103 99
0.236597 0.330246 1.636639 65 89 137
-0.045035 0.239677 1.830230 154 156 142
-0.049003 0.329350 1.706553 209 222 228
0.082605 0.105024 1.888513 72 73 67
-0.229037 0.019594 2.823670 181 168 124
0.134888 -0.029061 1.859216 69 71 68
-0.121332 0.109722 2.079639 76 78 77
-0.041463 -0.081534 1.963906 123 107 108
-0.270179 -0.227662 1.955272 167 148 141
0.001364 -0.061243 1.827819 155 124 104
0.202055 0.175415 1.578703 43 53 88
0.160542 0.332272 1.935178 218 232 233
-0.141743 -0.064761 2.027039 82 76 78
-0.210367 0.697578 2.924070 84 120 182
0.004591 0.032048 1.826585 74 80 70
-0.081400 -0.151740 2.010548 176 179 168
0.024041 0.437194 2.260828 127 132 112
0.144590 -0.051198 1.871446 115 111 100
-0.402287 0.082453 2.831037 115 106 99
0.009002 0.309396 1.727108 201 212 214
0.177217 -0.029915 2.010612 93 116 106
0.106543 -0.050694 1.842262 140 145 139
0.059414 0.327031 1.713393 33 24 27
0.074256 -0.097274 1.848230 134 142 131
0.013046 -0.001577 0.835495 220 235 238
0.141395 -0.068411 1.872783 147 159 139
0.122116 0.104213 2.024841 57 46 50
0.094068 0.070700 1.820451 121 129 118
-0.302834 0.026114 1.986004 138 138 128
0.012083 -0.019008 1.820029 95 79 64
0.198153 -0.187783 2.151271 182 196 181
-0.128100 0.330938 2.153082 113 115 128
0.130239 0.283616 1.891218 95 142 122
-0.227541 0.437020 1.634395 109 178 253
0.131460 0.359692 2.145567 180 183 176
0.358705 0.412656 1.642494 88 88 96
0.177340 0.318215 1.404385 142 153 147
0.207138 0.415900 1.559099 112 128 144
-0.289042 -0.230308 1.958314 174 147 136
0.144763 0.226821 1.295630 160 225 255
0.301668 0.016653 1.857458 154 214 255
-0.208159 0.161773 2.369154 128 126 114
-0.103914 0.063281 2.004445 87 98 100
0.189425 0.369315 1.549909 165 174 183
-0.328487 0.365007 2.481769 112 120 141
0.295150 0.258987 1.917674 118 168 229
0.192502 0.391659 2.056640 147 152 155
-0.099867 0.425888 1.491058 89 153 227
-0.044316 0.349291 1.717943 206 221 228
-0.078285 -0.002928 1.927257 123 109 98
0.576551 0.158065 1.050696 158 221 252
0.038014 0.272099 1.787744 26 39 32
0.069155 -0.041718 1.828573 49 52 57
0.118072 0.419042 2.097305 160 164 149
-0.027692 -0.008752 1.826223 118 87 82
0.170661 0.225586 2.135117 61 56 78
0.148479 0.071216 1.836016 201 213 199
0.121844 0.157306 1.549453 206 218 208
-0.108251 0.333635 1.683258 131 136 130
0.141987 0.053823 1.895020 93 112 116
-0.083063 0.060400 2.196535 89 81 78
0.304727 0.308521 1.905678 75 111 173
0.031872 0.373123 1.573960 122 125 144
0.120438 0.289801 1.408249 175 185 186
-0.312510 0.141165 2.013278 190 180 168
0.021682 0.286855 1.691292 138 137 132
-0.339511 0.232184 2.750527 54 66 64
-0.242261 0.368398 1.633809 143 189 249
-0.040376 -0.171402 2.032216 188 184 159
-0.178881 0.431421 2.141321 60 53 43
0.132372 -0.164330 2.057875 115 105 93
0.076660 -0.016402 1.827486 122 125 118
0.010648 0.376633 1.476960 160 167 186
-0.297846 0.077728 1.959558 142 185 238
0.049637 -0.038854 1.822748 124 127 116
-0.113055 -0.044986 1.959679 90 91 86
0.222469 0.384338 1.563489 68 75 93
-0.014459 0.258305 1.428224 51 42 37
-0.037399 0.319861 1.713213 149 152 193
0.051929 0.382460 1.622468 109 120 126
0.002060 0.323868 1.576935 106 105 111
0.155439 -0.137549 2.027886 163 173 162
0.108048 0.268784 1.808178 102 119 139
-0.127993 0.242440 1.742227 212 198 149
0.022848 0.281908 1.948503 78 113 91
-0.110471 0.213941 1.826274 81 77 76
0.120225 -0.050380 1.852364 108 109 101
0.139420 -0.048455 1.825231 175 178 159
0.362470 0.383539 1.637803 22 26 51
-0.001626 0.386248 1.467933 46 66 101
0.043818 0.318780 2.224535 100 103 96
0.191244 -0.266143 2.162361 161 159 136
-0.224170 0.401322 1.663649 135 126 119
-0.183549 0.183613 1.536581 177 170 152
0.006709 -0.037484 1.818207 104 95 90
0.139980 -0.240965 2.118446 48 58 59
0.292895 0.290095 1.936391 131 181 240
-0.069268 0.211946 1.814262 99 90 61
-0.069123 0.034851 2.166441 95 105 106
-0.071011 0.289145 1.833954 51 51 53
0.088773 -0.004662 1.833302 147 163 150
0.179554 0.215255 2.191930 116 128 176
0.173577 0.204847 1.560225 22 28 40
0.154816 0.330193 1.678193 192 200 202
-0.393478 0.576779 3.479180 64 63 59
-0.512649 0.280049 3.630704 130 113 123
0.415192 0.079761 1.544095 120 150 212
0.225349 0.109831 2.076452 122 132 141
-0.062990 -0.158169 2.027649 189 192 183
0.036605 0.090342 2.384151 232 246 247
0.199456 0.381107 1.556901 39 64 94
0.097780 0.274146 1.412334 205 225 216
-0.003227 0.100836 1.950282 131 116 93
-0.223326 0.345698 2.299034 157 148 165
0.374386 0.433374 1.647536 55 122 190
-1.884123 0.921347 4.072067 157 221 255
0.247695 0.266404 1.716098 60 80 89
0.075266 0.364395 1.550958 124 131 137
0.038346 -0.105645 1.847608 208 209 203
-0.049552 0.347231 2.309557 107 92 63
0.027070 -0.040230 1.819176 75 78 69
0.081181 -0.043793 1.832687 82 85 78
0.484168 0.116375 0.893820 145 147 172
-0.065748 0.329644 1.841023 36 37 21
0.153482 0.318909 1.676699 192 206 206
0.186147 0.269741 2.173554 149 173 219
0.195355 0.110768 1.775008 156 163 155
-0.024322 -0.010090 1.869254 44 47 52
0.110203 0.351248 1.702698 30 32 31
0.213381 0.403879 1.564198 104 109 112
0.053287 0.052766 1.837326 33 37 49
0.081580 -0.080998 1.841770 113 103 93
0.215656 -0.163583 2.107856 165 176 168
0.118062 -0.031598 1.852510 72 66 52
0.068100 0.018453 1.828245 94 102 91
-0.053637 0.284552 1.829012 62 58 49
-0.519906 0.781238 3.746575 136 147 143
0.047482 -0.049963 1.822793 105 106 98
-0.050711 0.053508 2.132774 72 83 79
0.123488 0.304190 1.314057 121 104 138
0.060395 -0.004645 1.823628 85 98 89
0.111224 0.362411 1.570229 70 68 71
-0.240530 0.155057 2.080169 74 58 61
-0.127223 -0.079717 1.924460 33 39 39
-0.120350 0.259493 1.765744 159 134 80
0.179553 0.296293 1.250476 120 126 138
0.107111 -0.127818 1.890598 212 223 207
0.401990 0.167289 1.587789 54 71 123
0.029396 0.043480 1.832493 82 88 76
0.094217 0.370731 1.596055 74 74 82
0.160468 0.066372 1.774832 84 88 63
0.074184 -0.136931 1.902700 148 148 140
0.157824 0.306788 2.176451 123 126 115
0.052031 0.130886 1.910984 61 71 63
-0.116521 -0.022274 2.105210 109 114 107
0.115296 0.124928 2.033877 71 61 85
-0.502884 0.325495 3.728352 111 105 105
0.406762 0.075754 1.567522 168 182 255
-0.059102 0.324787 1.680612 228 242 242
0.027792 0.080620 2.400596 80 72 49
0.183740 0.251525 2.194954 139 157 219
0.041373 0.374994 1.486138 162 167 186
0.605606 0.098364 1.018418 141 208 253
0.031737 -0.158875 2.214746 179 176 157
-0.003335 0.435369 1.480487 70 69 83
-0.212755 0.220125 2.010003 81 50 47
0.127907 -0.001465 1.852035 157 171 158
0.085231 0.207116 1.641015 157 164 146
-0.243309 0.123074 2.077078 84 56 52
0.163918 0.268971 2.171099 66 67 62
0.015128 0.337624 1.593690 168 170 146
0.326133 0.096408 1.349950 105 91 116
0.024354 0.232191 2.046159 54 54 52
-0.874756 0.310897 1.948677 149 217 254
-0.074422 0.301455 2.121193 126 132 148
0.144168 -0.034511 2.261928 58 67 64
-0.056566 0.304566 1.857744 50 50 48
-0.267716 -0.098272 1.962487 59 44 47
0.078691 0.058900 1.849413 108 116 118
0.401096 0.165379 1.601620 49 70 135
-0.121641 0.193457 1.980372 49 51 50
0.118264 0.311453 2.041478 51 71 69
-0.324225 -0.231973 1.983139 165 157 144
-0.058517 0.263286 1.843291 39 34 28
0.231434 0.146271 1.996324 144 146 135
-0.005007 0.374354 1.472249 160 159 155
-0.114576 -0.129572 1.990440 35 40 33
-0.550641 0.068071 3.797679 137 127 136
-0.279496 0.036918 1.911231 131 190 248
0.099013 0.058307 1.863053 103 113 123
0.003656 0.279823 1.843982 44 39 20
0.215217 -0.041152 2.100474 153 158 152
0.302580 0.320032 1.926335 175 201 228
0.120771 0.106753 1.897017 101 136 130
0.386608 0.365904 1.687888 67 83 135
-0.308631 -0.066942 1.967064 169 165 153
0.113284 -0.035668 0.765429 189 203 188
-0.010916 -0.070899 2.078633 161 127 102
-0.005386 -0.067248 1.786961 156 138 134
0.069539 0.358275 1.853390 58 49 50
-0.029092 -0.212835 1.996940 84 70 70
-0.200338 0.495022 2.894776 100 87 52
0.126183 -0.058855 1.860030 89 86 71
0.001577 -0.119213 1.920226 208 186 165
-0.150470 0.051383 1.985412 59 65 63
0.252943 -0.179702 0.709143 159 176 184
-0.019113 0.031370 1.836104 94 96 91
-0.146184 -0.040059 1.937097 42 42 42
-0.014388 0.151593 2.519870 73 82 81
0.040138 -0.072484 1.830122 126 103 89
0.159341 -0.266062 2.110542 183 176 160
-0.034293 -0.045995 1.833811 115 88 79
0.227556 0.228761 1.681952 24 35 39
-0.030453 0.401816 1.897395 102 104 101
-0.169168 0.265134 2.251381 50 49 45
0.521526 -0.141418 1.116044 226 238 250
-0.000868 0.142031 1.930574 54 58 61
-0.138100 0.092056 1.998231 33 39 39
0.239694 0.055095 2.008222 128 127 106
0.205317 0.348478 1.655634 74 77 92
0.406421 -0.162547 1.065493 180 192 208
-0.253282 0.323908 2.288847 137 123 136
-0.051372 0.256620 1.832373 43 52 33
-0.050652 0.296160 2.161127 27 23 22
-0.009719 0.115315 1.941189 41 45 44
0.037178 -0.044656 1.861382 150 127 111
-0.148428 0.326336 2.165822 99 121 144
-0.130434 0.320279 1.747706 174 150 122
0.186602 -0.198386 2.167649 71 77 89
-0.102896 0.365621 2.057157 118 126 129
0.151052 0.112539 1.997346 76 81 121
-0.011490 0.367837 1.556993 57 51 53
0.331277 0.068709 1.636344 124 102 148
-0.013513 0.281248 1.805241 180 171 138
-0.407415 0.453313 3.285035 133 113 115
0.087017 0.033258 1.841770 100 104 105
-0.125749 0.404701 2.196538 130 129 99
0.146763 -0.019386 1.677045 176 185 164
0.186460 -0.055865 2.167408 93 114 131
-0.198414 0.416886 2.328573 147 149 135
0.073943 0.036960 1.839696 92 91 96
-0.005608 -0.185698 2.004059 70 72 69
0.133243 -0.075998 1.866732 116 122 120
-0.132523 -0.086223 2.012001 129 105 103
-0.087158 0.150152 2.285876 170 147 115
-0.080461 0.088318 1.929201 98 113 106
-0.002863 0.277556 1.843891 42 39 22
0.183743 0.454737 1.768099 127 161 173
-0.310899 -0.018882 1.990379 149 146 129
0.407205 -0.082373 0.989614 185 192 210
-0.002394 0.446002 1.479165 36 46 81
0.319425 0.310420 1.515867 74 58 71
-0.037209 -0.315362 2.561229 183 166 159
-0.090987 0.124957 2.030244 54 58 61
0.172348 -0.037800 1.818023 159 165 155
0.121524 -0.095423 1.872551 205 215 204
0.146833 -0.034591 1.871917 115 131 130
0.050697 -0.001110 1.821926 55 54 50
0.127601 0.302767 1.308978 52 40 50
0.042372 0.045661 1.833903 54 52 53
0.208599 0.298021 2.130924 161 167 165
0.001755 0.350857 1.471300 61 52 47
-0.074911 0.451287 1.460480 69 123 169
0.088071 0.213591 1.477817 144 166 190
0.234205 0.296161 1.647320 116 146 184
-0.092871 0.018581 1.982392 154 127 116
0.160528 -0.139778 2.016538 165 166 158
0.191508 0.356449 1.604392 145 143 144
0.044242 -0.001346 2.227894 75 80 73
0.118195 0.497476 2.186993 172 178 190
-0.523137 -0.211202 3.756474 83 79 80
0.058345 0.317014 2.193805 129 126 119
0.450603 -0.069445 1.022381 186 180 168
0.024598 0.307651 1.733303 93 93 93
-0.058468 0.234290 1.812734 58 71 64
0.122438 0.359085 1.702774 69 68 64
0.439414 -0.148692 1.042938 179 182 197
0.090485 -0.021757 1.647411 201 212 204
0.319801 0.317421 1.866569 98 132 219
-0.046517 0.031591 2.182711 115 128 121
0.271241 -0.156009 0.701695 192 189 198
-0.043140 0.005171 2.175272 111 95 95
0.278584 -0.189140 0.693822 216 223 233
0.139727 0.276294 1.537067 213 228 221
-0.004028 -0.046166 2.279640 137 109 97
-0.268675 -0.066578 1.969447 72 56 56
0.112151 -0.259960 2.111082 153 137 124
-0.553217 -0.142771 3.688536 130 119 117
-0.250750 0.706454 3.101616 76 69 63
0.076952 0.030982 2.108567 51 49 52
-0.417069 0.254540 3.635284 74 71 82
-0.034533 0.027900 2.159985 131 133 130
-0.102847 0.521904 2.081247 62 79 107
-0.487441 0.277444 3.710345 106 82 80
-0.231958 0.389701 1.649438 134 173 232
0.274863 0.380269 1.594921 44 49 69
-0.027729 -0.191571 1.983371 46 56 55
-0.285854 0.025492 2.389911 87 77 76
0.497701 -0.083034 1.002698 220 237 247
-0.292256 0.271810 2.253462 136 115 124
0.066179 0.117865 1.846426 101 107 105
-0.154905 -0.145496 2.027563 114 105 106
0.496038 -0.056451 0.962768 150 158 169
0.072973 0.045602 1.842588 80 82 79
0.199378 0.413776 1.556268 56 84 124
-0.268257 -0.180135 1.958057 61 45 46
0.300591 -0.050592 0.682604 220 222 217
0.198663 -0.166019 2.131728 180 190 179
0.133275 0.121180 2.035298 56 60 89
0.239984 0.255498 1.710992 51 78 131
-0.078548 0.358663 1.767059 149 141 154
-0.055776 0.404747 1.560697 156 166 142
0.234761 0.147863 0.931201 143 213 249
0.079201 0.264909 1.888272 94 106 86
0.203041 0.337214 2.159463 79 143 205
0.167344 -0.213053 2.149626 74 56 54
0.491164 0.176090 1.077087 149 214 254
-0.177742 0.033079 2.576319 102 111 106
-0.269025 -0.195809 1.955247 66 56 55
0.423880 -0.125707 0.958067 151 173 194
-0.081671 0.104731 1.977154 225 237 225
0.015388 0.267597 2.332691 82 68 55
0.262747 0.359060 1.784031 49 55 45
0.107946 0.271464 1.808163 131 160 168
0.530472 -0.126270 1.136221 153 166 175
-0.260882 0.184363 1.989303 58 48 46
0.323281 -0.130471 0.669306 130 151 240
0.145506 -0.048414 1.869852 94 88 74
0.450848 0.097824 0.929432 186 191 220
-0.043906 -0.016957 1.830456 137 98 99
0.176313 0.345251 1.691325 52 62 71
0.036620 0.003158 1.815223 71 67 66
0.048336 0.205367 1.890784 161 171 183
0.228363 0.143932 2.002065 100 96 95
0.492492 -0.052048 0.971949 141 156 159
-0.392572 0.136057 2.731554 143 121 134
-0.310023 0.121776 2.010204 143 145 142
0.153880 0.379788 1.619088 164 173 170
0.192868 -0.199504 2.152025 133 136 107
0.407772 -0.183163 1.067194 183 180 175
-0.162340 0.259937 1.990383 201 187 142
0.138656 0.273957 1.421517 202 218 217
0.406450 -0.117387 0.984754 139 149 161
0.131633 0.301754 1.304001 54 54 62
-0.393181 0.079387 2.799244 143 133 132
0.022769 0.019061 1.821686 58 51 45
0.083340 0.300622 1.711950 36 35 40
-0.098310 0.071624 2.238247 112 132 123
0.234316 0.265739 1.691126 120 127 197
0.069259 0.331002 2.395488 45 83 58
-0.007324 0.033146 1.845886 79 87 66
-0.261669 0.196809 1.990414 72 53 47
0.054167 -0.146452 1.868294 145 160 153
0.020649 0.124135 2.409820 130 133 112
-0.303697 0.256688 2.009138 90 147 214
0.293531 0.293234 1.934700 91 120 160
0.116789 0.121613 2.142148 38 35 52
0.158951 -0.064020 1.897579 152 158 144
0.100615 0.278345 1.954588 136 140 117
-0.055198 0.315376 1.853265 41 39 27
-0.172222 0.282187 2.501323 136 130 130
-0.053455 0.426833 1.466156 94 105 111
0.017450 -0.053118 2.116630 100 106 104
0.507483 -0.164943 1.123684 151 161 171
0.070303 0.360855 1.448236 152 141 145
0.441416 -0.030794 0.792416 183 197 234
-0.322154 -0.192239 1.985037 157 153 141
0.547881 -0.209687 1.275377 187 203 193
-0.199885 0.058964 2.442989 188 156 117
0.089075 -0.181593 2.149645 139 119 118
0.297585 0.256478 1.399916 48 52 99
0.271880 0.397488 1.599260 126 147 174
0.087857 0.144231 2.037655 32 32 40
-0.315803 -0.018010 1.035820 155 219 255
-0.238431 0.163348 2.075628 62 65 80
-0.098813 0.332759 1.670808 225 236 242
-0.191670 0.449304 1.792865 104 107 114
0.053861 0.079607 1.856959 105 115 104
0.145536 0.064679 1.888416 56 67 97
0.182904 0.359794 1.619261 110 115 118
0.243405 0.363509 1.722338 43 46 35
-0.053354 0.006333 2.583303 67 65 68
-0.437287 0.779511 3.535604 72 61 57
0.423685 -0.101294 1.011877 179 174 171
0.236994 0.367646 1.735210 75 77 66
-0.041343 0.274197 1.860865 67 56 36
0.007356 -0.220424 1.999675 88 83 80
0.080996 0.048998 1.683349 113 112 108
-0.400395 -0.009928 2.783537 107 91 91
0.013609 -0.124050 2.068323 187 180 164
-0.320901 0.205724 2.354111 121 107 132
0.181331 0.371677 1.562729 92 87 93
0.046337 0.018737 0.842959 29 34 38
0.195253 0.007536 2.150291 136 158 179
0.027146 0.037623 1.827176 75 74 54
-0.106039 -0.170422 1.985221 79 78 83
-0.172986 0.140211 1.775493 120 117 134
-0.125613 -0.153900 1.980793 92 87 94
-0.218300 -0.230343 1.975323 160 152 150
0.103504 0.289397 1.962991 175 178 161
-0.231376 0.387060 1.648457 144 183 250
0.141429 0.418701 1.580190 123 154 175
0.059042 -0.108753 1.999189 130 112 102
0.024238 0.074144 1.847288 135 146 140
0.277168 -0.176350 0.694189 190 195 224
-0.010178 -0.036309 2.018739 185 163 140
0.147141 0.261138 1.214387 99 131 169
0.169498 -0.209436 2.144948 68 57 55
0.000291 -0.185894 1.993414 63 62 57
-0.030048 0.270084 1.843042 38 38 36
0.012221 0.277373 1.829972 19 29 18
0.094206 -0.005918 1.834144 164 173 168
0.047244 -0.016743 2.344182 164 139 117
-0.082905 -0.189180 2.079506 85 83 86
-0.240238 0.159305 2.079056 51 48 55
0.064906 -0.054432 1.829996 155 142 126
-0.119433 -0.044577 1.969677 89 91 86
-0.133371 0.010489 1.862464 126 107 109
-0.395141 0.728977 3.353782 82 151 228
0.473020 0.055257 0.963845 184 192 205
-0.251947 0.077215 1.939319 71 50 49
0.500715 -0.213534 1.302074 164 176 188
-0.134131 0.452837 1.716474 99 102 143
-0.178544 0.300705 2.061055 123 149 172
0.041359 -0.038505 1.836802 177 183 169
-0.043716 -0.207139 2.021235 107 103 100
-0.227606 0.065551 2.128495 58 48 49
0.457432 -0.081540 0.844015 185 201 224
0.095740 0.261021 1.599832 167 181 181
0.149857 0.255576 1.210695 112 160 224
0.335514 0.375161 1.656643 141 127 124
0.096431 0.147921 1.748421 29 29 29
0.102360 0.090589 1.926295 111 115 101
-0.084219 -0.240865 2.022377 191 169 158
