ply
format ascii 1.0
element vertex 842
property float x
property float y
property float z
property uchar diffuse_red
property uchar diffuse_green
property uchar diffuse_blue
end_header
-0.353344 0.232614 2.696499 185 178 159
-0.385838 0.174516 2.738553 200 187 168
-0.349467 0.172462 2.444366 209 202 186
-0.167785 0.086253 1.363001 108 99 90
-0.321654 -0.145816 1.994084 220 209 189
-0.342916 -0.159005 2.198915 102 99 106
-0.193669 0.173365 1.427984 127 117 118
-0.331942 -0.124812 2.140155 118 114 115
-0.261284 -0.011767 1.738388 161 226 255
-0.303186 -0.096511 1.979796 118 103 110
-0.245134 -0.177550 1.588867 77 68 73
-0.302976 0.236706 2.335015 179 162 142
-0.160501 0.179335 1.605532 139 128 134
-0.180565 0.046127 1.471611 185 168 158
-0.294604 0.450248 2.033412 154 218 254
-0.285987 0.166540 2.099308 62 60 65
-0.293457 0.450250 2.031872 153 217 255
-0.202672 0.130562 1.665777 177 166 162
-0.298890 0.004783 2.070264 63 77 106
-0.253238 -0.011211 1.724818 80 87 116
-0.272979 0.176964 2.148620 145 129 130
-0.201304 0.248064 1.434152 106 103 120
-0.211077 0.189281 1.627556 74 73 78
-0.217543 0.200526 1.653367 89 78 94
-0.273478 0.263458 2.160377 116 100 111
-0.159390 0.212738 1.375426 91 85 89
-0.173393 0.271512 1.344990 159 144 115
-0.294397 0.266051 2.381860 72 64 85
-0.409806 0.079099 2.754718 154 142 120
-0.270448 -0.064968 1.833294 128 119 124
-0.183479 0.361322 1.342907 127 199 255
-0.325064 0.453146 2.286114 111 120 159
-0.236270 0.192682 1.614029 100 91 118
-0.275877 0.133016 2.400547 129 103 102
-0.276287 -0.013208 1.998739 141 124 132
-0.216056 0.202605 1.576816 48 61 77
-0.310342 0.150254 2.142391 161 147 134
-0.353332 0.409634 2.580934 163 148 151
-0.252031 0.349963 1.943481 142 125 115
-0.222195 -0.098268 1.568700 106 96 97
-0.223439 0.217829 2.127375 134 116 116
-0.234973 0.255973 1.719902 74 68 80
-0.282760 -0.029076 2.009639 88 72 83
-0.244114 -0.064958 1.786899 113 102 96
-0.268013 0.201243 1.899634 93 81 91
-0.220853 -0.011239 1.589935 129 115 114
-0.377852 0.506239 2.663599 121 202 255
-0.315657 0.001740 2.291448 118 100 100
-0.217342 -0.155156 1.582182 65 54 48
-0.219023 0.015852 1.589014 116 106 105
-0.260041 -0.058274 1.916788 61 55 55
-0.216798 -0.067639 1.588775 54 45 46
-0.216636 -0.059563 1.588906 51 41 42
-0.218982 0.150148 1.602309 137 119 119
-0.215902 -0.050007 1.590126 65 47 45
-0.296842 0.338048 2.238015 132 108 122
-0.237424 0.020904 1.831059 108 93 96
-0.213266 -0.062288 1.590429 114 100 99
-0.206029 0.089178 1.602033 121 109 111
-0.205568 0.107863 1.603722 128 112 112
-0.165440 0.401856 1.328408 157 221 255
-0.201756 -0.148516 1.588922 60 59 55
-0.188433 0.395578 1.574114 135 157 178
-0.299791 -0.124759 2.404548 72 57 62
-0.191101 0.415478 1.577518 123 198 255
-0.197784 -0.054473 1.609671 116 101 98
-0.197784 -0.054473 1.609671 116 101 98
-0.236130 -0.020642 2.013888 92 82 81
-0.269739 0.473518 2.229557 130 123 154
-0.233698 0.127093 2.121474 51 92 172
-0.183916 0.325860 1.556796 89 73 74
-0.230016 0.241662 2.027973 82 69 76
-0.152114 0.163362 1.592845 117 103 103
-0.284340 0.078085 2.399909 69 63 65
-0.184406 -0.110079 1.601740 116 103 95
-0.179139 -0.181053 1.598433 90 71 67
-0.196575 -0.039263 1.901488 130 108 111
-0.175541 0.279873 1.540174 64 95 177
-0.175011 -0.157650 1.601148 78 71 65
-0.175011 -0.157650 1.601148 78 71 65
-0.103637 0.160846 1.300891 92 80 80
-0.230522 0.553943 2.347610 48 44 41
-0.109128 0.078454 1.634962 131 119 131
-0.186408 0.037014 2.059036 111 95 95
-0.064446 0.096383 1.313280 194 175 168
-0.158826 -0.103975 1.581929 75 64 58
-0.158550 0.193733 2.193211 69 60 65
-0.176752 -0.212810 1.798666 192 174 170
-0.135794 0.367396 1.406286 122 121 137
-0.140754 0.410438 1.516217 141 164 182
-0.175261 0.451584 1.943114 133 130 99
-0.221403 0.443320 2.219200 77 96 165
-0.156146 -0.130915 1.612498 66 47 51
-0.153556 -0.124364 1.613074 132 112 113
-0.181915 0.554977 2.018641 81 71 80
-0.150598 -0.181930 1.611581 106 81 74
-0.138606 0.414022 1.519720 56 85 153
-0.140488 0.019323 1.834968 150 130 129
-0.148697 -0.148293 1.613445 150 130 129
-0.169846 0.370066 1.784932 141 173 186
-0.146277 -0.144408 1.614599 69 63 75
-0.160522 0.419888 1.880189 97 87 98
-0.138322 -0.150134 1.619022 67 66 72
-0.123734 0.159731 2.132540 111 101 99
-0.134359 -0.013049 1.581386 63 69 65
-0.138134 -0.154404 1.620221 116 101 104
-0.119134 0.137092 2.019185 83 74 75
-0.127884 0.426528 1.589735 139 164 169
-0.057522 0.165213 1.332786 41 41 43
-0.064265 0.182498 1.911313 118 115 124
-0.149509 0.396214 2.196529 239 229 220
-0.123073 0.408759 1.954109 171 158 126
-0.115547 0.380323 1.550814 101 94 110
-0.148868 0.000232 2.114125 125 118 89
-0.086486 0.156086 1.624314 133 160 169
-0.142791 -0.237362 2.047290 109 89 88
-0.143485 0.158026 2.176649 108 104 101
-0.132579 0.330870 1.848403 181 185 184
-0.097968 0.229195 1.456259 151 129 80
-0.080667 0.160405 1.616725 139 157 171
-0.114319 0.382847 1.865275 167 138 98
-0.100243 0.143288 1.552935 115 115 103
-0.088376 0.102102 1.531442 171 173 151
-0.111890 0.077916 1.782605 148 163 160
-0.117385 -0.009933 1.857954 162 128 100
-0.102946 0.067179 1.720811 83 82 80
-0.131101 -0.051693 2.084969 66 93 102
-0.080096 0.197669 2.051309 98 102 111
-0.105539 -0.070079 1.706425 72 66 68
-0.105539 -0.070079 1.706425 72 66 68
-0.108389 0.472936 1.899823 93 94 96
-0.050004 0.126446 1.829980 112 120 141
-0.089191 0.177891 1.504278 213 218 212
-0.119411 0.090711 2.048371 105 125 123
-0.076699 0.335525 1.291823 67 87 111
-0.098282 -0.064524 1.701852 171 153 129
-0.102844 0.026206 2.161306 63 47 32
-0.012123 0.075955 1.339903 197 175 161
-0.113091 -0.047668 1.991995 154 174 175
-0.092505 -0.053405 1.633364 115 117 112
-0.112795 -0.047575 1.991530 154 174 175
-0.084749 -0.009412 1.552485 156 131 109
-0.087793 0.093328 1.549253 185 188 177
-0.096955 0.213363 1.747509 185 188 177
-0.109163 -0.047624 1.982953 86 100 100
-0.109163 -0.047624 1.982953 86 100 100
-0.093361 -0.013470 1.704611 144 150 148
-0.106567 -0.002682 2.057609 163 147 131
-0.056776 0.204866 2.004200 61 98 140
-0.112997 0.318433 2.126896 45 44 39
-0.090504 -0.067680 1.691401 171 150 131
-0.086034 0.054270 1.700920 145 154 153
-0.082916 -0.087661 1.591589 178 179 147
-0.077457 0.212554 1.486127 152 133 100
-0.105589 -0.026465 2.016301 140 147 129
-0.097721 -0.026790 2.038841 182 156 129
-0.101600 -0.013644 1.977743 128 148 155
-0.003887 0.109966 1.331191 71 62 63
-0.024980 0.226134 1.641326 143 136 118
-0.081486 -0.184730 1.644177 104 93 87
-0.030286 0.170591 1.593543 144 119 99
-0.082690 -0.100735 1.679945 168 140 118
-0.094461 -0.036685 1.934602 104 120 119
-0.083406 -0.111278 1.728659 165 139 124
-0.068631 0.302152 1.450082 191 198 167
-0.073627 -0.072520 1.583552 184 162 141
-0.084238 0.197942 1.813860 223 233 209
-0.069273 0.197592 1.501554 160 156 127
-0.084257 -0.038805 1.894456 141 165 169
-0.086822 -0.018032 1.947389 76 89 97
-0.070988 0.376712 1.478434 118 139 144
-0.071768 -0.191714 1.646618 128 108 117
0.011313 0.130669 1.166975 166 175 174
-0.061372 0.322559 1.468165 31 37 49
-0.079554 -0.014120 1.888521 135 156 159
-0.072150 0.189641 1.770829 34 30 27
-0.078523 -0.039712 1.894246 138 111 104
-0.063457 0.315696 1.393767 122 123 127
0.013480 0.146533 1.637754 86 90 89
-0.061441 0.030696 1.608669 104 92 76
-0.060545 0.181350 1.496528 141 143 121
-0.063879 -0.110278 1.594536 170 175 168
-0.066406 0.056379 1.821005 95 79 64
-0.060715 0.352108 1.527547 92 97 93
-0.048919 0.361137 1.243230 130 163 170
-0.056394 0.318416 1.468918 71 75 76
-0.047388 0.328022 1.318476 149 143 153
-0.055473 -0.017793 1.816220 140 153 146
-0.056573 0.187104 1.508371 99 107 84
-0.052345 -0.110889 1.407456 139 133 121
-0.059849 -0.129535 1.637418 210 214 197
-0.068565 0.515080 1.935998 195 200 193
-0.042623 0.107910 1.824950 204 208 183
-0.074228 0.252884 2.003067 204 208 183
-0.063192 -0.022727 1.785995 131 125 111
0.021506 0.103818 1.378346 81 63 59
-0.070147 -0.247128 2.044906 194 176 166
0.022189 0.124494 1.154419 207 213 185
-0.045920 0.267319 1.377373 125 123 144
-0.053476 -0.191136 1.654987 108 82 83
-0.038065 0.209961 1.369244 60 83 67
-0.063568 -0.034392 1.998489 162 146 123
-0.037578 0.367571 1.250672 115 140 160
-0.045979 0.321123 1.538454 75 77 76
-0.047902 0.319025 1.679131 80 85 107
-0.055215 0.419032 2.067660 80 85 107
-0.046057 0.024123 1.715820 153 135 115
-0.045223 0.043004 1.754400 159 128 108
-0.012460 0.055701 1.327210 226 242 241
0.031809 0.099577 1.365358 87 63 61
-0.041396 0.243345 1.507445 124 113 111
-0.048070 -0.034849 1.791834 75 83 85
-0.036541 0.280470 1.346692 156 166 158
-0.051492 -0.057960 1.893086 157 141 125
-0.033139 0.289967 1.334270 157 161 173
-0.032157 -0.021236 1.557372 147 135 121
-0.038898 0.214114 1.442434 141 132 123
-0.036530 0.311520 1.442834 66 67 72
-0.049827 0.264505 1.993793 126 146 137
-0.048554 0.060875 1.903588 145 156 139
-0.041480 -0.037741 1.708881 77 84 92
-0.035715 0.057071 1.622257 168 177 158
0.012075 0.174044 1.214160 111 98 92
-0.038646 -0.081995 1.621913 196 167 149
-0.038149 -0.092029 1.620151 172 145 126
0.041395 0.152549 1.526284 205 205 177
-0.029311 0.382024 1.247855 56 76 101
-0.035432 0.200732 1.513805 53 80 63
-0.037225 -0.062051 1.612962 185 159 142
-0.040789 0.000484 1.763432 119 114 110
-0.036467 -0.066509 1.620376 176 145 127
-0.034344 -0.012512 1.618089 101 106 100
-0.033577 0.037020 1.527645 102 122 113
-0.044121 0.055966 1.946671 128 133 126
-0.035421 0.013373 1.803107 75 63 67
-0.023614 -0.048977 1.474011 207 216 199
-0.023614 -0.048977 1.474011 207 216 199
-0.039808 -0.004459 1.966379 135 146 142
-0.031988 -0.085126 1.612820 193 171 157
-0.041637 0.073688 1.999690 130 135 129
-0.033384 -0.041452 1.677815 159 136 122
-0.024768 0.013876 1.560139 146 110 96
-0.030175 0.028349 1.524630 70 81 65
-0.020820 -0.046703 1.468852 211 223 213
-0.027804 0.007705 1.554917 112 128 117
-0.028569 -0.019272 1.695271 75 74 70
-0.029133 -0.060902 1.725243 89 77 63
-0.029133 -0.060902 1.725243 89 77 63
-0.024857 -0.062519 1.528153 193 177 151
-0.024842 -0.005372 1.597983 112 115 106
-0.021447 0.288273 1.336585 52 51 46
-0.019512 0.374603 1.252509 103 115 113
-0.019512 0.374603 1.252509 103 115 113
-0.024961 -0.181862 1.612477 86 69 61
-0.017279 0.109643 1.350277 51 39 23
-0.020713 -0.026333 1.872687 170 142 121
-0.021841 -0.001088 1.516952 80 62 60
-0.017219 -0.104622 1.652491 103 111 113
-0.022101 -0.170948 1.626893 103 111 113
-0.021223 -0.163287 1.626837 27 41 41
0.057482 0.085798 1.513868 195 173 160
-0.019436 -0.053811 1.522061 181 154 135
-0.019173 0.013721 1.517655 44 47 52
-0.020515 0.046512 1.528620 78 87 84
-0.017710 0.018506 1.518460 79 72 66
-0.013774 0.341045 1.257377 91 122 140
-0.019348 -0.043204 1.717671 125 120 114
-0.017705 -0.157835 1.628008 81 90 85
-0.017197 -0.115766 1.625857 196 178 164
-0.014994 -0.062493 1.525026 193 176 160
-0.018915 0.038149 1.844358 90 100 101
0.017570 0.010027 1.376772 33 34 39
-0.015629 0.053198 1.727495 104 120 117
0.021183 0.097382 1.678021 215 194 175
-0.001692 0.271460 1.259245 66 53 45
0.048994 0.121924 1.387028 179 169 160
-0.010781 0.284624 1.335824 185 189 174
0.046476 0.063507 1.410181 105 130 150
0.060102 0.086098 1.648166 105 130 150
-0.010311 -0.063820 1.648147 197 184 165
-0.009975 0.029555 1.523400 132 140 127
-0.003828 -0.037279 1.676266 158 144 131
-0.001089 -0.033070 1.699025 212 204 183
-0.009678 -0.180655 1.621797 101 116 135
-0.009995 -0.019885 1.700395 81 87 77
-0.008599 -0.168809 1.644622 41 42 46
-0.007605 -0.096938 1.693947 111 106 103
-0.006747 -0.057136 1.522099 186 172 159
0.019983 0.035474 1.481083 199 204 181
0.033941 0.111324 1.529643 125 124 129
-0.006110 0.238629 1.464079 119 105 76
0.002197 0.001744 1.577506 184 165 148
-0.001967 -0.059117 1.656240 207 194 178
-0.001869 -0.059216 1.656087 207 194 178
-0.004771 0.047920 1.693384 141 158 148
-0.003949 0.411115 1.621701 153 168 191
-0.003043 -0.039470 1.566320 167 152 129
-0.002379 0.012491 1.516221 138 126 104
-0.000489 0.020954 1.606005 118 90 78
-0.001694 -0.064596 1.491964 191 174 158
-0.002478 -0.182989 1.801929 33 35 32
0.001397 -0.026201 1.732366 105 96 91
0.000308 0.315785 1.366668 210 212 190
-0.001084 0.297500 1.329363 210 212 190
-0.000814 -0.027525 1.515221 152 127 105
-0.001183 0.012102 1.779257 83 93 94
-0.001183 0.012102 1.779257 83 93 94
0.001783 0.077929 1.604901 135 146 140
0.001357 0.166594 1.657101 30 26 23
0.007910 -0.081060 1.865324 221 230 211
0.039822 0.056430 1.392714 178 178 166
0.002386 -0.026263 1.515436 95 82 65
0.002009 0.367578 1.268970 55 49 77
0.002531 -0.019630 1.514151 181 181 171
0.002692 -0.046828 1.518478 120 104 89
0.002692 -0.046828 1.518478 120 104 89
0.002926 0.002363 1.565173 63 74 70
0.010831 0.196118 1.693296 175 185 161
0.048774 0.006745 1.908604 126 106 108
0.002852 0.037811 1.745141 119 130 124
0.003700 -0.027926 1.515235 91 82 73
0.004578 0.004266 1.568681 52 63 59
0.004578 0.004266 1.568681 52 63 59
0.004392 0.328808 1.256430 48 50 88
0.005379 0.465642 1.637094 128 159 162
0.006339 -0.084546 1.642977 92 86 72
0.006649 -0.077615 1.660497 68 63 59
0.006649 -0.077615 1.660497 68 63 59
0.017829 -0.064089 1.930017 228 238 204
0.007422 0.175870 1.658802 149 146 129
0.007320 -0.057512 1.521829 198 178 154
0.008002 0.046480 1.526978 132 139 123
0.008944 -0.104460 1.547871 213 182 154
0.007840 0.283602 1.347582 166 171 164
0.011489 -0.111093 1.724226 218 200 178
0.013187 -0.101284 1.839893 178 154 130
0.010555 -0.029577 1.515382 195 196 190
0.012142 -0.019986 1.729378 91 77 68
0.016949 0.201161 1.932008 230 240 241
0.009328 0.324157 1.261053 72 66 104
0.020342 0.050522 1.549563 159 153 129
0.010107 0.304647 1.315779 175 182 166
0.012454 0.028421 1.520780 60 59 54
0.011660 0.287771 1.348480 167 172 149
0.019626 -0.020834 1.704780 201 183 171
0.016806 -0.087661 1.731320 163 139 127
0.014353 0.077274 1.543708 132 140 119
0.013030 0.330375 1.543130 165 173 152
0.014882 -0.071676 1.527504 196 176 152
0.030924 0.334999 1.423635 115 118 101
0.016046 -0.033686 1.517538 79 80 75
0.014706 0.287595 1.349926 61 62 54
0.017420 -0.126784 1.580647 228 242 225
0.017084 -0.005411 1.515032 143 135 132
0.051158 0.156251 1.670585 143 135 132
0.017331 -0.009080 1.515175 142 137 133
0.017693 0.034101 1.522271 140 151 145
0.015376 0.313645 1.315450 152 163 169
0.016445 0.178719 1.402617 152 151 131
0.044212 0.046137 1.894736 205 186 143
0.027658 0.417860 1.988174 225 245 236
0.016888 0.288946 1.352830 40 38 41
0.019468 -0.025108 1.514963 172 182 171
0.019829 -0.004916 1.515162 57 67 66
0.022756 -0.071340 1.724273 201 180 159
0.076998 0.229915 1.730449 128 107 104
0.022925 0.094229 1.760851 96 108 96
0.022670 -0.105965 1.638284 159 138 137
0.025975 0.426750 1.883720 141 144 151
0.024869 -0.151352 1.734340 184 172 160
0.022033 -0.067991 1.525712 163 132 111
0.018293 0.264971 1.289866 84 86 72
0.022190 0.013834 1.517753 127 113 104
0.022692 -0.004182 1.515674 111 111 101
0.023036 -0.035137 1.517762 75 76 70
0.023590 -0.051881 1.519917 196 178 166
0.024518 -0.119175 1.566023 133 137 122
0.021290 0.341337 1.275406 120 131 133
0.025963 -0.030386 1.516113 187 194 186
0.035390 0.146406 1.284507 59 48 104
0.022860 0.321570 1.272333 143 129 142
0.038618 -0.087163 1.978250 134 110 100
0.027911 -0.034879 1.517355 167 171 157
0.028095 -0.013445 1.515834 171 171 159
0.024265 0.284956 1.328462 30 32 29
0.031564 -0.188157 1.644357 113 94 90
0.034427 0.382513 1.914098 34 35 37
0.029624 0.013826 1.517850 141 115 98
0.035628 -0.129672 1.799047 219 231 209
0.035284 -0.084100 1.779658 108 93 86
0.030457 -0.052610 1.521724 179 171 158
0.040754 0.109943 1.559541 145 154 159
0.026660 0.348222 1.329427 38 40 89
0.030544 -0.040443 1.518114 152 146 122
0.029396 0.257670 1.461788 187 202 207
0.028754 0.274068 1.432284 238 248 249
0.033507 -0.087517 1.639407 187 174 157
0.032091 -0.024518 1.516896 172 179 161
0.027084 0.340311 1.275422 115 136 137
0.038499 0.015208 1.858319 68 75 67
0.033472 0.054014 1.533781 133 153 151
0.034162 -0.049414 1.521413 176 168 145
0.037799 -0.097525 1.653050 126 97 99
0.040476 -0.123045 1.739101 142 155 146
0.035139 -0.042827 1.519855 177 181 156
0.030863 0.163577 1.379681 48 59 65
0.041895 0.051651 1.803855 47 54 38
0.041929 0.051684 1.803799 47 54 38
0.041929 0.051684 1.803799 47 54 38
0.037335 -0.036823 1.519167 200 211 194
0.036562 -0.033037 1.482170 200 211 194
0.037335 -0.036823 1.519167 200 211 194
0.039119 -0.088218 1.542057 195 161 134
0.032367 0.382778 1.284460 52 119 190
0.038597 -0.029864 1.518205 186 194 183
0.043359 0.094810 1.752670 97 104 96
0.041302 0.300256 1.297076 129 128 124
0.053927 -0.031902 1.670388 234 218 193
0.057027 -0.032297 1.759703 234 218 193
0.047244 0.031954 1.851298 40 51 43
0.036276 0.277282 1.402930 162 166 133
0.041096 -0.144397 1.579601 213 192 171
0.037857 0.047384 1.451130 108 107 102
0.037445 0.293850 1.396013 32 33 28
0.041205 -0.013499 1.518949 162 172 163
0.041146 -0.008989 1.516678 142 148 146
0.046270 -0.125034 1.703358 153 135 125
0.041363 -0.034605 1.520039 103 110 102
0.037623 0.282841 1.377775 119 125 111
0.041880 0.045933 1.532389 131 148 140
0.036233 0.344216 1.319011 30 30 54
0.042147 -0.022681 1.518689 175 186 170
0.081655 0.073773 1.322516 212 229 213
0.043028 0.038831 1.527801 123 110 94
0.043074 0.011132 1.512081 59 74 77
0.052678 0.009052 1.811339 93 103 95
0.043649 -0.038870 1.520855 197 201 186
0.044024 -0.044302 1.522027 165 150 129
0.044572 -0.089581 1.522418 209 205 193
0.048704 0.154542 1.659181 84 81 76
0.045432 -0.041596 1.522737 93 84 85
0.036572 0.236568 1.308335 113 117 126
0.048019 -0.045074 1.615646 182 188 174
0.038821 0.323762 1.273651 45 50 92
0.047234 0.291078 1.549720 25 31 47
0.046641 -0.010841 1.520083 161 165 164
0.047395 -0.074624 1.532411 168 147 126
0.047207 0.003208 1.521616 52 50 51
0.039838 0.340063 1.282249 102 127 123
0.048361 -0.000282 1.521003 176 177 172
0.041791 0.341803 1.312967 40 29 69
0.042451 0.309035 1.320156 118 131 140
0.040160 0.291666 1.285402 118 131 140
0.049335 -0.045853 1.523664 169 150 133
0.041456 0.319788 1.275520 150 148 161
0.050279 0.017670 1.525340 99 75 73
0.070155 -0.030108 1.743889 219 227 214
0.050306 -0.041217 1.522762 158 160 139
0.050306 -0.041217 1.522762 158 160 139
0.050829 -0.004668 1.521496 77 87 78
0.051423 0.045396 1.534259 149 153 138
0.052040 -0.103218 1.551018 212 193 179
0.053105 0.094155 1.537268 113 125 113
0.059035 0.248794 1.201203 45 72 67
0.055783 0.237491 1.185512 45 72 67
0.047529 0.323032 1.374111 90 78 90
0.052646 -0.012463 1.521741 100 109 106
0.059201 -0.198013 1.705943 101 91 89
0.053267 0.004686 1.523222 95 100 93
0.053529 -0.047202 1.525130 175 154 135
0.053642 -0.009082 1.526602 142 149 142
0.054086 0.015948 1.525826 89 92 81
0.054402 0.041497 1.533965 75 66 57
0.056244 0.212028 1.584088 131 135 118
0.054210 -0.009259 1.525828 144 149 145
0.054256 -0.034027 1.523304 175 179 164
0.051903 0.237838 1.504258 154 149 153
0.055329 -0.001931 1.523095 155 165 156
0.055687 -0.005696 1.524444 78 86 88
0.055687 -0.005696 1.524444 78 86 88
0.056313 -0.039364 1.525260 153 137 122
0.056247 0.005078 1.524060 141 150 145
0.056254 -0.009728 1.523057 162 170 159
0.060727 -0.094962 1.647746 192 170 156
0.057271 0.001473 1.524052 136 145 140
0.114957 0.107744 1.361968 237 242 219
0.059037 0.041316 1.536057 147 151 134
0.058862 -0.013340 1.524283 108 114 104
0.065287 -0.006248 1.493132 188 171 143
0.059723 0.011544 1.526870 149 164 161
0.060081 0.004544 1.525597 113 123 112
0.060107 -0.017262 1.523811 155 169 154
0.060637 0.024945 1.530380 146 156 147
0.060799 -0.038108 1.526103 155 128 111
0.071216 -0.131532 1.748768 177 193 182
0.060206 -0.072062 1.407554 177 193 182
0.063618 0.220072 1.568235 63 79 69
0.062035 -0.011036 1.525394 160 168 153
0.062361 -0.005269 1.525061 150 156 130
0.062762 -0.044649 1.527273 144 132 116
0.077289 -0.025270 1.777195 142 114 110
0.071283 -0.035250 1.627220 104 109 105
0.063248 -0.041454 1.527478 132 108 98
0.060213 -0.001411 1.301845 200 176 152
0.063496 0.015474 1.528979 103 127 113
0.069652 0.150409 1.666069 93 98 76
0.064263 -0.008555 1.526905 111 132 127
0.064889 0.151527 1.247076 44 36 85
0.060137 0.043152 1.433597 40 46 44
0.065898 -0.072345 1.537875 107 100 84
0.065784 0.032980 1.535190 135 145 136
0.066549 0.068200 1.553073 48 47 45
0.066165 0.036666 1.536631 153 164 160
0.067002 0.071037 1.555498 46 51 45
0.066719 -0.064673 1.534378 170 154 139
0.054425 0.284937 1.352666 147 138 159
0.109642 0.092677 1.244791 225 226 210
0.067344 0.037538 1.535068 150 169 167
0.066248 -0.007776 1.514729 128 137 134
0.067440 -0.033500 1.528237 178 192 169
0.059604 0.327068 1.351803 137 136 152
0.068548 0.042543 1.540089 125 133 136
0.068548 0.042543 1.540089 125 133 136
0.064073 0.282633 1.432894 32 31 37
0.064073 0.282633 1.432894 32 31 37
0.068832 -0.010059 1.528525 101 106 100
0.068832 -0.010059 1.528525 101 106 100
0.080945 0.031884 1.789272 131 144 135
0.069506 -0.067054 1.535745 101 93 90
0.060255 0.359724 1.296015 128 157 163
0.058209 0.354745 1.309790 83 78 110
0.060064 0.369681 1.291128 83 78 110
0.073853 -0.058550 1.591193 76 72 73
0.073205 0.080553 1.566629 77 73 72
0.076463 0.075631 1.648807 77 73 72
0.073480 0.217787 1.570629 64 82 68
0.061186 0.328035 1.304420 62 54 105
0.077818 0.055821 1.652712 68 86 96
0.087759 -0.228889 1.861592 190 186 161
0.059698 0.369388 1.255940 50 116 176
0.073010 0.026903 1.535719 112 118 116
0.073032 -0.047891 1.532229 164 162 141
0.077093 0.071489 1.619041 67 59 56
0.073612 -0.054829 1.533183 96 91 87
0.078610 -0.145669 1.628916 205 195 170
0.087856 0.214373 1.872764 218 225 251
0.075002 -0.074398 1.542211 201 207 195
0.072546 -0.085046 1.474580 232 244 230
0.062719 0.318838 1.284818 162 163 183
0.075885 -0.047745 1.533491 77 77 65
0.123281 0.125486 1.609259 105 103 88
0.080158 0.081883 1.578863 111 104 96
0.076442 -0.054406 1.535077 163 155 144
0.076392 -0.037090 1.533135 158 141 111
0.076609 -0.030461 1.531896 172 186 171
0.078396 0.056151 1.551534 71 65 65
0.082635 -0.038613 1.636001 171 174 163
0.083485 0.338271 1.484593 88 88 86
0.067343 0.337863 1.293277 121 149 152
0.136480 0.089113 1.690363 228 241 231
0.138137 0.073139 1.651611 215 217 193
0.091009 0.367627 1.602363 96 97 89
0.073920 0.140482 1.375381 80 84 87
0.138244 0.073287 1.651508 215 217 193
0.081497 -0.049255 1.536084 109 102 92
0.081421 -0.017363 1.533970 161 174 165
0.081640 -0.028229 1.533783 79 86 78
0.082336 -0.035652 1.534598 173 170 153
0.104916 0.140709 1.573236 133 127 141
0.078907 -0.094415 1.343461 143 130 114
0.082913 -0.051257 1.537246 146 149 128
0.083422 0.027735 1.540881 158 167 148
0.088665 -0.137127 1.637838 221 225 208
0.083795 0.024012 1.541496 124 140 140
0.083795 0.024012 1.541496 124 140 140
0.085351 0.003846 1.546272 148 151 134
0.070690 0.334284 1.294476 92 122 130
0.083897 -0.021667 1.534343 89 97 86
0.084099 -0.030278 1.534594 167 168 150
0.070612 0.318430 1.288440 157 153 168
0.068915 0.364911 1.246319 59 125 199
0.086182 0.030511 1.543568 121 135 135
0.085808 -0.015657 1.535453 58 63 66
0.085808 -0.015657 1.535453 58 63 66
0.096532 -0.205346 1.721583 81 70 66
0.096750 -0.204176 1.721400 85 62 54
0.086801 -0.010364 1.536088 89 104 99
0.077290 0.314704 1.355282 50 48 61
0.096533 -0.091753 1.684330 217 229 219
0.087906 -0.036039 1.537459 119 132 123
0.088093 -0.048414 1.539690 165 175 151
0.073997 0.322496 1.290311 52 54 93
0.096438 -0.028505 1.682029 154 168 168
0.102027 0.009482 1.717605 163 171 156
0.101297 -0.211737 1.723339 202 198 169
0.078982 0.306111 1.331263 98 88 112
0.077744 0.356983 1.303853 108 125 141
0.085045 0.028325 1.409429 96 102 102
0.092455 -0.048202 1.543202 153 162 141
0.092647 -0.041093 1.540823 86 90 93
0.097725 -0.027824 1.538954 204 214 203
0.094198 -0.022190 1.542522 135 138 121
0.100151 0.034124 1.657386 54 53 58
0.078110 0.349533 1.320632 61 54 72
0.094955 -0.038159 1.542156 142 145 136
0.094955 -0.038159 1.542156 142 145 136
0.103309 -0.030534 1.680635 158 170 170
0.096741 0.039286 1.554807 104 129 126
0.097228 0.045448 1.558238 128 151 159
0.098040 -0.062897 1.550980 192 204 182
0.097949 -0.044402 1.545523 146 154 143
0.123407 0.067024 1.414606 92 91 99
0.086095 0.313345 1.358581 61 58 69
0.087941 0.240137 1.389403 183 189 177
0.099750 -0.057271 1.550235 184 186 165
0.108494 -0.030473 1.638451 123 137 120
0.099830 -0.048496 1.547885 101 105 91
0.100062 -0.037882 1.513258 76 85 82
0.101684 -0.050918 1.549683 142 135 117
0.102751 -0.040132 1.549436 163 150 131
0.087386 0.348001 1.306646 118 135 153
0.105434 -0.036628 1.549695 140 126 97
0.105719 -0.050757 1.552184 79 81 57
0.108506 0.408866 1.545022 37 38 92
0.106350 -0.055012 1.553453 176 167 158
0.114670 -0.108107 1.668330 144 146 143
0.089405 0.321665 1.297373 62 56 102
0.103903 -0.067705 1.504495 165 168 151
0.096571 -0.041818 1.393696 138 121 93
0.090292 0.316442 1.291963 170 154 167
0.108543 -0.037513 1.551861 57 53 44
0.109731 0.020920 1.557030 151 166 163
0.109731 0.020920 1.557030 151 166 163
0.095724 -0.003258 1.357901 154 165 149
0.092628 0.332543 1.304079 85 104 98
0.110602 -0.028392 1.552388 54 68 69
0.109709 -0.062782 1.535781 148 159 145
0.116896 -0.027381 1.590266 61 56 78
0.117843 -0.091070 1.638998 206 213 195
0.149377 0.126620 1.652330 69 69 71
0.111646 -0.026407 1.553770 53 64 60
0.105792 -0.026433 1.384631 150 163 156
0.093715 0.238410 1.344540 183 189 179
0.106447 -0.051953 1.467328 200 208 187
0.121197 0.078910 1.052310 98 78 79
0.094916 0.347119 1.309371 106 120 155
0.094916 0.347119 1.309371 106 120 155
0.095291 0.355951 1.311693 113 125 149
0.126822 -0.209938 1.733017 96 95 91
0.083641 0.299698 1.140328 136 164 176
0.120942 0.001126 1.645592 154 164 153
0.090507 0.354498 1.223776 39 114 179
0.129600 -0.040687 1.755077 167 168 152
0.115727 -0.025694 1.557109 81 87 85
0.115752 0.062039 1.542476 101 99 123
0.094813 0.317579 1.255388 51 46 86
0.117830 -0.011137 1.556764 152 158 144
0.121387 -0.063480 1.431223 53 50 45
0.126703 -0.043481 1.650174 117 132 125
0.134863 -0.034272 1.749626 161 164 143
0.148913 0.006123 1.664613 133 132 111
0.125100 -0.055083 1.576333 154 165 157
0.123297 -0.032169 1.562587 161 172 164
0.124104 -0.042127 1.564461 177 189 169
0.097614 -0.118507 1.228289 118 98 100
0.124268 -0.042073 1.564219 177 189 169
0.124997 -0.026060 1.564532 123 128 108
0.126302 -0.071181 1.578911 105 107 106
0.125909 -0.028903 1.558191 72 88 87
0.125909 -0.028903 1.558191 72 88 87
0.127297 -0.039320 1.566949 171 181 172
0.106116 0.320144 1.305495 80 64 111
0.127782 -0.033298 1.564173 157 173 162
0.144430 -0.213215 1.766023 100 107 91
0.119892 0.037183 1.427509 155 165 154
0.121047 0.331280 1.472505 137 143 141
0.134213 0.145315 1.296024 152 176 188
0.110209 0.349505 1.314899 144 178 190
0.147673 -0.157543 1.755080 59 54 51
0.228563 0.085657 1.604871 186 183 166
0.109204 0.182999 1.327453 31 44 34
0.150845 0.211942 1.776054 112 127 130
0.125496 0.195177 1.494435 164 168 167
0.142090 0.059919 1.131845 151 149 111
0.112430 0.319528 1.307746 89 62 107
0.134600 0.397980 1.521541 54 47 89
0.114225 0.337987 1.316673 112 128 154
0.106500 0.346690 1.207085 51 119 194
0.125275 -0.034659 1.405561 113 139 138
0.132823 -0.104685 1.452996 190 200 189
0.122971 0.304303 1.359280 133 142 139
0.123272 0.306734 1.359115 82 88 102
0.133706 0.113439 1.336307 201 213 209
0.120771 0.372075 1.317649 84 84 118
0.124486 0.308513 1.355116 117 136 130
0.126559 0.096617 1.291803 197 215 215
0.143076 0.315752 1.424013 176 191 198
0.123164 0.316312 1.328899 112 92 104
0.155777 0.268864 1.674878 175 179 178
0.143519 0.164474 1.484569 159 169 158
0.123758 0.260982 1.260922 92 121 153
0.135065 0.297445 1.412578 49 36 46
0.127395 0.314303 1.323765 121 102 124
0.127830 0.319184 1.314359 74 62 98
0.116845 0.341498 1.196299 49 98 157
0.138903 0.293622 1.420261 148 151 142
0.133240 0.075724 1.222381 123 138 145
0.133884 0.336256 1.302961 140 138 151
0.119114 0.340333 1.193934 47 89 139
0.143852 0.159023 1.405320 24 32 43
0.134387 0.361022 1.327190 54 48 60
0.148652 0.252196 1.402918 161 224 255
0.153187 0.138225 1.357514 130 148 148
0.141643 0.178697 1.340114 178 180 167
0.128438 0.274723 1.265021 126 158 171
0.130833 0.326686 1.219051 133 157 169
0.130642 0.274229 1.214508 150 165 170
0.144370 0.330919 1.290392 133 126 142
0.170572 0.300382 1.561751 107 133 166
0.181798 0.338760 1.653747 118 136 138
0.145166 0.301071 1.281508 106 93 113
0.194703 0.248999 1.712655 161 224 255
0.166946 0.273043 1.462331 109 133 157
0.131581 0.249560 1.100132 79 104 134
0.174293 0.297694 1.489095 69 98 102
0.153753 0.133265 1.269037 24 40 56
0.163108 0.304982 1.384330 74 75 77
0.166172 0.274256 1.404971 103 142 173
0.185419 0.369777 1.569405 173 161 163
0.171588 0.127137 1.322301 65 58 65
0.160820 0.331017 1.338765 43 42 73
0.180300 0.325248 1.501469 133 118 125
0.180890 0.303193 1.525224 130 141 147
0.163947 0.327213 1.342012 49 60 78
0.191162 0.327573 1.605354 69 90 117
0.141526 0.208236 1.179891 139 139 129
0.151922 0.045071 1.173010 114 150 174
0.159877 0.267264 1.311880 68 69 71
0.203548 0.286457 1.584494 33 36 51
0.177845 0.219150 1.435399 33 36 51
0.230171 0.103939 1.466610 88 109 128
0.150583 0.268912 1.229794 48 61 80
0.167078 0.350536 1.337982 131 166 188
0.167078 0.350536 1.337982 131 166 188
0.169937 0.301755 1.355759 73 69 66
0.169937 0.301755 1.355759 73 69 66
0.163735 0.091114 1.283347 51 64 134
0.185624 0.253979 1.372793 203 217 228
0.194894 0.210105 1.509997 110 117 125
0.190105 0.238947 1.513493 156 164 175
0.149442 0.325559 1.162280 64 133 210
0.191459 0.293792 1.514468 129 134 138
0.191459 0.293792 1.514468 129 134 138
0.183563 0.219262 1.423212 214 225 231
0.183563 0.219262 1.423212 214 225 231
0.210267 0.107932 1.461800 38 47 52
0.179431 0.147949 1.396570 27 36 65
0.189733 0.252041 1.367123 214 232 246
0.164315 0.277094 1.272285 148 140 153
0.186442 0.217488 1.422996 44 52 88
0.177764 0.342054 1.343792 96 108 124
0.190319 0.200855 1.432798 184 205 234
0.189391 0.219187 1.422634 186 206 215
0.186964 0.300653 1.388991 97 98 118
0.158238 0.218854 1.120087 116 139 153
0.176931 0.320100 1.337847 95 113 125
0.170026 0.011178 1.136586 145 175 211
0.229918 0.307842 1.546156 145 175 211
0.187557 0.220627 1.341909 119 145 178
0.169944 0.200413 1.215106 119 145 178
0.198171 0.288820 1.457574 38 41 74
0.198390 0.290305 1.452714 50 70 81
0.191023 0.284976 1.424140 59 68 73
0.196259 0.217787 1.424459 46 43 72
0.197222 0.210716 1.426229 115 144 178
0.198619 0.220352 1.426152 126 126 134
0.184405 0.196491 1.329744 154 157 150
0.189364 0.326777 1.360592 45 51 103
0.197433 0.230977 1.412742 118 151 192
0.189734 0.353160 1.352077 110 131 148
0.234068 0.315538 1.540434 42 54 92
0.180100 0.169683 1.216706 73 64 107
0.234251 0.059368 1.530388 92 120 167
0.188390 0.315702 1.338748 50 46 83
0.204502 0.286831 1.447975 41 49 85
0.199267 0.249748 1.407129 111 140 182
0.166698 0.200212 1.190358 20 24 33
0.194615 0.349344 1.353998 88 103 108
0.193332 0.312545 1.341403 147 147 157
0.179569 0.111363 1.250605 63 100 144
0.199318 0.217077 1.322563 161 226 255
0.199879 0.307995 1.344426 117 114 121
0.162458 0.269299 1.087189 126 160 159
0.180811 0.232950 1.214034 61 76 95
0.204179 0.358046 1.359906 63 59 76
0.209721 0.289465 1.376619 27 28 23
0.210541 0.153422 1.382927 175 203 206
0.206247 0.064165 1.183674 95 101 89
0.162901 0.265089 1.053701 72 92 127
0.210322 0.147407 1.371142 148 172 184
0.209030 0.341097 1.354034 116 144 156
0.209030 0.341097 1.354034 116 144 156
0.210431 0.342864 1.361716 101 117 106
0.211061 0.337935 1.361645 122 156 183
0.224828 0.298974 1.427773 124 130 130
0.176909 0.226696 1.118739 36 42 58
0.232444 0.140688 1.455694 179 199 206
0.217340 0.135923 1.351066 83 110 157
0.218959 0.281254 1.355651 142 143 148
0.189660 0.266722 1.168281 133 113 122
0.196838 0.302338 1.207721 137 170 179
0.185728 0.307585 1.124426 44 100 149
0.226871 0.322386 1.366475 36 38 53
0.230303 0.173451 1.327139 41 43 91
0.205786 0.275738 1.209167 193 178 175
0.233506 0.325152 1.369548 104 122 106
0.235176 0.356532 1.372852 53 39 64
0.238574 0.325255 1.372640 100 117 109
0.250137 0.273716 1.458549 105 81 113
0.266158 0.240177 1.524841 145 209 255
0.214000 0.274964 1.172823 129 158 166
0.191882 0.251462 1.034454 125 149 175
0.193376 0.254503 1.041402 125 149 175
0.211001 0.254260 1.124640 155 140 145
0.195264 0.210818 1.006142 146 215 255
0.261545 0.310059 1.281439 123 140 147
0.231818 0.095408 1.083200 108 99 126
0.212723 0.250884 1.038526 129 151 149
0.291082 0.322304 1.403493 46 52 102
0.292367 0.350903 1.403924 107 119 135
0.265264 0.082937 1.157682 91 71 120
0.297522 0.345454 1.403324 84 102 104
0.296664 0.173046 1.317007 99 120 141
0.248673 0.197981 1.137955 72 75 92
0.418571 -0.131508 0.973403 131 145 158
0.437609 -0.181382 1.119170 123 142 148
0.403357 -0.079370 0.913344 192 203 221
0.451773 -0.204520 1.104382 173 190 200
0.410877 -0.020910 0.853271 190 182 169
0.377800 0.225534 0.871615 182 182 208
0.536593 0.224661 0.969291 81 84 93
0.461204 0.192957 0.825444 180 177 184
