ply
format ascii 1.0
element vertex 823
property float x
property float y
property float z
property uchar diffuse_red
property uchar diffuse_green
property uchar diffuse_blue
end_header
-0.337447 0.230075 2.636737 185 178 159
-0.372847 0.174255 2.686244 200 187 168
-0.339379 0.172201 2.404481 209 202 186
-0.163045 0.085353 1.347939 108 99 90
-0.320091 -0.142905 1.978225 220 209 189
-0.341028 -0.155398 2.179991 102 99 106
-0.189856 0.172149 1.414053 127 117 118
-0.262222 -0.010662 1.729887 161 226 255
-0.302555 -0.094160 1.965962 118 103 110
-0.243162 -0.175426 1.576035 77 68 73
-0.153802 0.177264 1.583754 139 128 134
-0.175714 0.045861 1.455007 185 168 158
-0.289990 0.447988 2.012813 154 218 254
-0.279119 0.166180 2.071491 62 60 65
-0.296282 0.004109 2.053703 71 75 84
-0.288867 0.447993 2.011328 153 217 255
-0.196953 0.129694 1.645446 177 166 162
-0.293479 0.006528 2.045549 63 77 106
-0.213486 0.208493 1.590042 139 139 149
-0.254043 -0.010150 1.716136 80 87 116
-0.264920 0.176163 2.117043 145 129 130
-0.198428 0.246630 1.421855 106 103 120
-0.206463 0.188110 1.610088 74 73 78
-0.407459 0.081999 2.729156 154 142 120
-0.269196 -0.063181 1.819602 128 119 124
-0.180988 0.359182 1.332109 127 199 255
-0.213218 0.214826 1.701312 140 130 139
-0.234390 0.192256 1.601804 100 91 118
-0.379734 0.394586 2.687992 81 80 86
-0.226587 0.036628 1.659924 76 63 70
-0.213064 0.201714 1.562892 48 61 77
-0.307637 0.151091 2.123253 161 147 134
-0.347171 0.407960 2.549510 163 148 151
-0.247202 0.348000 1.922563 142 125 115
-0.221215 -0.096982 1.557789 106 96 97
-0.214624 0.215823 2.093324 134 116 116
-0.279634 -0.027098 1.990221 88 72 83
-0.319612 0.493300 2.348927 124 109 130
-0.228190 0.068744 1.684590 87 77 101
-0.316960 -0.071589 2.262661 72 70 75
-0.267497 -0.058991 1.936184 100 100 92
-0.266537 0.201414 1.885594 93 81 91
-0.219095 -0.010445 1.577583 129 115 114
-0.312144 0.004089 2.267804 118 100 100
-0.215596 -0.153316 1.569600 65 54 48
-0.217693 0.016458 1.577473 116 106 105
-0.257010 -0.056285 1.898380 61 55 55
-0.215070 -0.066454 1.576331 54 45 46
-0.214902 -0.058437 1.576464 51 41 42
-0.214178 -0.048950 1.577703 65 47 45
-0.293196 0.337261 2.216223 132 108 122
-0.211577 -0.061150 1.578015 114 100 99
-0.204404 0.089286 1.589889 121 109 111
-0.203941 0.107855 1.591597 128 112 112
-0.163812 0.399814 1.318985 157 221 255
-0.249278 0.080619 2.032549 122 106 106
-0.186073 0.393621 1.561604 135 157 178
-0.298560 -0.121122 2.383742 72 57 62
-0.188998 0.413564 1.565498 123 198 255
-0.231567 -0.018911 1.990518 92 82 81
-0.170422 0.333696 1.474067 108 103 109
-0.266524 0.471800 2.209165 130 123 154
-0.182203 0.324471 1.545343 89 73 74
-0.226256 0.240959 2.007272 82 69 76
-0.199134 -0.084408 1.657814 121 112 113
-0.248231 0.038409 2.182168 108 102 104
-0.283123 0.080005 2.380036 69 63 65
-0.182950 -0.108650 1.589249 116 103 95
-0.177711 -0.179091 1.585810 90 71 67
-0.192681 -0.037675 1.880484 130 108 111
-0.175682 0.279224 1.531945 64 95 177
-0.173630 -0.155883 1.588595 78 71 65
-0.100775 0.159319 1.289044 92 80 80
-0.226215 0.550839 2.322791 48 44 41
-0.104222 0.077736 1.614855 131 119 131
-0.181551 0.037947 2.033448 111 95 95
-0.151846 0.192333 2.160805 69 60 65
-0.175226 -0.210042 1.783232 192 174 170
-0.134628 0.365650 1.396816 122 121 137
-0.139034 0.408408 1.505059 141 164 182
-0.172319 0.449284 1.925544 133 130 99
-0.220149 0.442445 2.202687 77 96 165
-0.152353 -0.122896 1.600588 132 112 113
-0.179395 0.552471 2.001716 81 71 80
-0.149410 -0.180023 1.598962 106 81 74
-0.137310 0.412182 1.509272 56 85 153
-0.136419 0.019921 1.813805 150 130 129
-0.147530 -0.146655 1.600913 150 130 129
-0.172602 0.295850 1.903962 143 128 107
-0.169556 0.369261 1.774198 141 173 186
-0.145131 -0.142805 1.602077 69 63 75
-0.142706 -0.140792 1.603803 114 96 94
-0.158499 0.418109 1.865014 97 87 98
-0.137237 -0.148500 1.606470 67 66 72
-0.133221 -0.012509 1.569475 63 69 65
-0.137053 -0.152735 1.607648 116 101 104
-0.126559 0.424642 1.578616 139 164 169
-0.054776 0.163482 1.320402 41 41 43
-0.101504 0.172797 1.422495 83 70 90
-0.105998 0.050286 1.501428 213 213 201
-0.146704 0.394366 2.175128 239 229 220
-0.126472 0.012984 1.832172 139 118 113
-0.120456 0.406546 1.936178 171 158 126
-0.115395 0.379062 1.541978 101 94 110
-0.147186 0.001765 2.094380 125 118 89
-0.053699 0.206449 1.254274 74 84 76
-0.089872 0.156176 1.621427 133 160 169
-0.141477 -0.233769 2.028102 109 89 88
-0.133197 0.330465 1.838654 181 185 184
-0.097262 0.228085 1.446668 151 129 80
-0.084049 0.160466 1.613886 139 157 171
-0.101615 0.143069 1.546332 115 115 103
-0.090417 0.101966 1.526190 171 173 151
-0.091317 0.305804 1.401079 40 38 41
-0.110209 0.078059 1.767244 148 163 160
-0.058197 0.241412 1.760407 140 142 137
-0.115766 -0.008921 1.841438 162 128 100
-0.133341 -0.048595 2.071687 147 158 152
-0.104247 0.255924 1.709016 138 139 141
-0.131031 -0.049859 2.069161 66 93 102
-0.085742 0.198891 2.051816 98 102 111
-0.104926 -0.068973 1.693703 72 66 68
-0.104926 -0.068973 1.693703 72 66 68
-0.106765 0.470816 1.884998 93 94 96
-0.045765 0.125306 1.807108 112 120 141
-0.061718 0.256174 1.311242 179 156 114
-0.091576 0.333490 1.582768 140 144 130
-0.088553 0.177073 1.494212 213 218 212
-0.093998 0.341811 1.593928 39 44 48
-0.071551 0.275271 1.514331 89 90 74
-0.097697 -0.063488 1.689183 171 153 129
-0.105996 0.027606 2.153268 63 47 32
-0.009249 0.074655 1.326506 197 175 161
-0.092499 -0.052653 1.622690 115 117 112
-0.043044 0.138937 1.642171 191 167 139
-0.112777 -0.046025 1.976846 154 174 175
-0.096072 0.212673 1.734689 185 188 177
-0.093251 0.193622 1.644233 151 156 136
-0.088965 -0.041692 1.597940 156 135 116
-0.109122 -0.046100 1.968269 86 100 100
-0.109122 -0.046100 1.968269 86 100 100
-0.062514 0.205989 2.005364 61 98 140
-0.089940 -0.066665 1.678801 171 150 131
-0.104010 -0.121758 1.975410 94 105 107
-0.093297 0.141606 2.068444 69 69 69
-0.088481 0.013638 1.709330 114 117 106
-0.082206 -0.086729 1.579700 178 179 147
-0.076905 0.211521 1.476397 152 133 100
-0.105434 -0.025029 2.000946 140 147 129
-0.095661 -0.025336 2.018115 182 156 129
-0.080849 -0.182939 1.631494 104 93 87
-0.044604 0.176788 1.617959 164 167 158
-0.082161 -0.099526 1.667356 168 140 118
-0.094924 -0.035404 1.921648 104 120 119
-0.072932 -0.071739 1.571733 184 162 141
-0.068780 0.196633 1.491706 160 156 127
-0.084886 -0.037633 1.882268 141 165 169
-0.087346 -0.016864 1.934427 76 89 97
-0.070751 0.313455 1.438464 118 139 144
-0.071208 -0.189891 1.633927 128 108 117
0.013419 0.128746 1.156820 166 175 174
-0.081352 0.083283 1.947065 135 156 159
-0.080031 -0.013118 1.876085 135 156 159
-0.071295 0.189014 1.757442 34 30 27
-0.064427 0.314654 1.387671 122 123 127
-0.060471 0.030763 1.596174 104 92 76
-0.060139 0.180447 1.486790 141 143 121
-0.063359 -0.109239 1.582740 170 175 168
-0.070915 -0.030826 1.750768 95 79 64
-0.060260 0.350532 1.517951 92 97 93
-0.056008 0.316905 1.459808 71 75 76
-0.046876 0.326209 1.310259 149 143 153
-0.053510 -0.017020 1.798402 140 153 146
-0.056176 0.186178 1.498532 99 107 84
-0.052236 -0.110375 1.398428 139 133 121
-0.059451 -0.128276 1.625267 210 214 197
-0.067714 0.513061 1.922398 195 200 193
-0.045846 0.108287 1.820250 204 208 183
-0.075773 0.252988 1.993343 204 208 183
-0.063208 -0.021919 1.773439 131 125 111
-0.063208 -0.021919 1.773439 131 125 111
0.024146 0.102200 1.364564 81 63 59
-0.069515 -0.243671 2.026000 194 176 166
0.024153 0.122578 1.144537 207 213 185
-0.055006 0.258898 1.488878 53 60 70
-0.045607 0.265864 1.368930 125 123 144
0.035519 0.149301 1.373138 200 205 182
-0.037324 0.365638 1.243363 115 140 160
-0.045671 0.319666 1.528867 75 77 76
-0.047407 0.317651 1.667855 80 85 107
-0.054128 0.417246 2.051091 80 85 107
-0.045172 0.024388 1.701998 153 135 115
-0.044245 0.043189 1.739934 159 128 108
-0.014792 0.055022 1.323549 226 242 241
0.034312 0.097952 1.351871 87 63 61
-0.048883 -0.034026 1.780918 75 83 85
-0.036247 0.259036 1.359149 77 76 108
-0.036306 0.278919 1.338603 156 166 158
-0.051377 -0.056698 1.878517 157 141 125
-0.039854 0.211967 1.497660 28 40 28
-0.032730 0.288286 1.325977 157 161 173
-0.030952 -0.020999 1.544474 147 135 121
-0.038766 0.212980 1.433645 141 132 123
-0.039892 -0.050695 1.623225 210 184 159
-0.049158 0.263668 1.978217 126 146 137
-0.048229 0.061284 1.888908 145 156 139
-0.042331 -0.037103 1.698902 77 84 92
-0.037227 0.057074 1.614917 168 177 158
0.013710 0.172071 1.204360 111 98 92
-0.047788 -0.242175 1.989192 172 170 147
-0.052790 0.430983 2.121232 72 79 95
-0.038307 -0.081176 1.609997 196 167 149
-0.037696 -0.091130 1.607957 172 145 126
-0.047175 -0.241054 1.988346 175 163 149
0.044274 0.150502 1.509807 205 205 177
-0.029103 0.380040 1.240639 56 76 101
-0.035177 0.199704 1.504092 53 80 63
-0.037536 0.144066 1.631393 65 65 63
-0.037053 -0.061409 1.601578 185 159 142
-0.040711 0.001029 1.750754 119 114 110
-0.030185 -0.071160 1.376820 143 130 122
-0.036327 -0.065824 1.608954 176 145 127
-0.035269 -0.012223 1.609245 101 106 100
-0.033344 0.036855 1.517345 102 122 113
-0.044283 0.056520 1.932603 128 133 126
-0.034600 0.013852 1.788088 75 63 67
0.020153 0.100108 1.274083 146 135 133
-0.022701 -0.048725 1.462544 207 216 199
-0.040623 -0.003469 1.953410 135 146 142
-0.012823 0.200437 1.420985 13 15 12
-0.031662 -0.084322 1.600956 193 171 157
-0.030333 -0.085175 1.543634 206 188 176
-0.041712 0.074201 1.984751 130 135 129
-0.033256 -0.040822 1.665795 159 136 122
-0.023971 0.013854 1.548119 146 110 96
-0.019924 -0.046487 1.457459 211 223 213
-0.029847 -0.058663 1.664289 163 141 128
-0.028241 -0.018768 1.682600 75 74 70
-0.029325 -0.060067 1.713284 89 77 63
-0.024681 -0.062090 1.517595 193 177 151
-0.025730 -0.005183 1.589205 112 115 106
-0.021313 0.286661 1.328704 52 51 46
-0.019371 0.372637 1.245336 103 115 113
-0.019371 0.372637 1.245336 103 115 113
-0.024786 -0.180367 1.600536 86 69 61
-0.034081 0.269108 1.959872 140 143 126
-0.018614 0.108909 1.344653 51 39 23
-0.019561 -0.025453 1.855363 170 142 121
-0.032449 0.364991 1.876354 131 136 116
-0.023155 -0.038020 1.652235 158 139 122
-0.021935 -0.169507 1.614793 103 111 113
-0.021063 -0.161909 1.614769 27 41 41
0.060161 0.084319 1.497415 195 173 160
-0.019306 -0.053470 1.511643 181 154 135
-0.020764 0.046286 1.519246 78 87 84
-0.017591 0.018388 1.508302 79 72 66
-0.018159 0.011187 1.569007 100 113 103
-0.013683 0.339170 1.250177 91 122 140
-0.019806 -0.042543 1.706407 125 120 114
-0.017573 -0.156508 1.615966 81 90 85
-0.017056 -0.114762 1.613968 196 178 164
-0.014893 -0.062102 1.514570 193 176 160
-0.018983 0.038537 1.830924 90 100 101
-0.015423 0.053240 1.714868 104 120 117
-0.015525 -0.038639 1.676507 104 120 117
-0.001104 0.269544 1.251039 66 53 45
0.051072 0.120184 1.373975 179 169 160
0.048577 0.062296 1.396582 105 130 150
0.062883 0.084791 1.629231 105 130 150
-0.009825 -0.063138 1.635280 197 184 165
-0.014190 0.009227 1.724694 90 93 84
-0.009904 0.029360 1.513258 132 140 127
-0.002957 -0.036758 1.662133 158 144 131
-0.000013 -0.032549 1.684056 212 204 183
-0.007677 0.319540 1.249769 191 196 176
-0.009605 -0.179191 1.609786 101 116 135
-0.009636 -0.198005 1.620223 190 168 155
-0.010746 -0.019438 1.690038 81 87 77
-0.008537 -0.167382 1.632371 41 42 46
-0.006706 -0.056811 1.511741 186 172 159
0.021478 0.034888 1.468075 199 204 181
0.030446 0.110934 1.527547 125 124 129
-0.006187 0.237364 1.455401 119 105 76
0.002961 0.001750 1.564989 184 165 148
0.001513 0.185467 1.668421 183 189 177
-0.001456 -0.058475 1.643117 207 194 178
-0.001358 -0.058574 1.642963 207 194 178
-0.004851 0.047924 1.681708 141 158 148
-0.003168 -0.039182 1.555855 167 152 129
-0.002368 0.012361 1.506163 138 126 104
-0.000182 0.020921 1.594287 118 90 78
-0.001562 -0.064295 1.481674 191 174 158
0.001933 -0.025664 1.718265 105 96 91
0.000438 0.314032 1.358550 210 212 190
-0.001073 0.295817 1.321693 210 212 190
-0.000816 -0.027420 1.505066 152 127 105
-0.001622 0.012497 1.767235 83 93 94
-0.001622 0.012497 1.767235 83 93 94
0.001919 0.077551 1.593783 135 146 140
0.001396 0.165834 1.645993 30 26 23
0.001272 0.040887 1.517563 138 155 147
0.008732 -0.079783 1.848113 221 230 211
0.041391 0.055414 1.380503 178 178 166
0.002362 -0.026176 1.505301 95 82 65
0.002016 0.365628 1.261851 55 49 77
0.002505 -0.019586 1.504052 181 181 171
0.002670 -0.046606 1.508239 120 104 89
0.002670 -0.046606 1.508239 120 104 89
0.002074 0.002374 1.556453 63 74 70
0.008422 0.195873 1.687796 175 185 161
0.051198 0.006936 1.885707 126 106 108
0.002089 0.037994 1.734421 119 130 124
0.003669 -0.027832 1.505100 91 82 73
0.003401 0.275503 1.227579 189 189 179
0.003689 0.004269 1.560005 52 63 59
0.003689 0.004269 1.560005 52 63 59
0.004362 0.326946 1.249362 48 50 88
0.005449 0.463724 1.627421 128 159 162
0.014317 -0.074049 1.827604 169 179 170
0.005785 -0.083863 1.632380 92 86 72
0.006159 -0.076928 1.649557 68 63 59
0.018885 -0.062855 1.910995 228 238 204
0.006680 -0.057283 1.512284 197 176 155
0.007411 0.175053 1.647773 149 146 129
0.007261 -0.057228 1.511558 198 178 154
0.007948 0.046146 1.516964 132 139 123
0.008878 -0.103808 1.537145 213 182 154
0.007796 0.281971 1.339814 166 171 164
0.011543 -0.109960 1.710899 218 200 178
0.009982 -0.069683 1.515282 203 187 162
0.013230 -0.099960 1.824983 178 154 130
0.010477 -0.029493 1.505280 195 196 190
0.012012 -0.019527 1.716870 91 77 68
0.009267 0.322308 1.253987 72 66 104
0.010050 0.302910 1.308301 175 182 166
0.012367 0.028166 1.510806 60 59 54
0.011595 0.286120 1.340737 167 172 149
0.016901 -0.086703 1.717820 163 139 127
0.014260 0.076782 1.533649 132 140 119
0.019951 0.353921 1.636628 89 90 111
0.012831 0.328859 1.534233 165 173 152
0.014774 -0.071310 1.517155 196 176 152
0.031695 0.332760 1.413713 115 118 101
0.015930 -0.033588 1.507431 79 80 75
0.014627 0.285940 1.342185 61 62 54
0.017291 -0.125921 1.569495 228 242 225
0.022074 0.045594 1.470290 39 75 75
0.016963 -0.005494 1.505043 143 135 132
0.052654 0.154852 1.655104 143 135 132
0.017207 -0.009141 1.505177 142 137 133
0.017571 0.033801 1.512328 140 151 145
0.016311 0.177531 1.394279 152 151 131
0.016273 0.148494 1.658742 152 151 131
0.027914 0.416005 1.973722 225 245 236
0.016798 0.287285 1.345083 40 38 41
0.020188 0.021822 1.473944 123 112 94
0.019330 -0.025078 1.504928 172 182 171
0.019690 -0.005009 1.505187 57 67 66
0.022463 0.094032 1.749226 96 108 96
0.022445 -0.105138 1.626660 159 138 137
0.024750 -0.149922 1.720921 184 172 160
0.021877 -0.067676 1.515432 163 132 111
0.018134 0.263329 1.282635 84 86 72
0.022037 0.013628 1.507822 127 113 104
0.022532 -0.004287 1.505716 111 111 101
0.022873 -0.035051 1.507685 75 76 70
0.023422 -0.051686 1.509768 196 178 166
0.024340 -0.118426 1.555112 133 137 122
0.025000 -0.044204 1.508445 184 170 159
0.021171 0.339440 1.268352 120 131 133
0.025780 -0.030342 1.506086 187 194 186
0.033287 0.145408 1.280707 59 48 104
0.022722 0.319722 1.265285 143 129 142
0.037137 -0.085852 1.965418 134 110 100
0.027716 -0.034809 1.507309 167 171 157
0.027900 -0.013510 1.505873 171 171 159
0.024077 0.283290 1.321036 30 32 29
0.031338 -0.186703 1.632188 113 94 90
0.034028 0.381122 1.902055 34 35 37
0.029422 0.013600 1.507961 141 115 98
0.035040 -0.083133 1.766120 108 93 86
0.030244 -0.052427 1.511584 179 171 158
0.038599 0.109502 1.554049 145 154 159
0.026519 0.346357 1.322057 38 40 89
0.030333 -0.040345 1.508051 152 146 122
0.029224 0.256219 1.453180 187 202 207
0.028540 0.272548 1.424068 238 248 249
0.033205 -0.086851 1.627900 187 174 157
0.031870 -0.024526 1.506908 172 179 161
0.026931 0.338411 1.268410 115 136 137
0.037489 0.015637 1.846348 68 75 67
0.033249 0.053580 1.523870 133 153 151
0.034540 0.288459 1.157867 47 46 44
0.033925 -0.049264 1.511305 176 168 145
0.036593 0.294455 1.497211 165 168 161
0.037160 -0.096811 1.642129 126 97 99
0.041951 -0.108600 1.751289 142 155 146
0.034895 -0.042725 1.509795 177 181 156
0.030517 0.162416 1.371842 48 59 65
0.041054 0.051746 1.792267 47 54 38
0.041087 0.051779 1.792213 47 54 38
0.041087 0.051779 1.792213 47 54 38
0.042627 0.070363 1.751885 130 155 151
0.037077 -0.036766 1.509145 200 211 194
0.036339 -0.033077 1.472501 200 211 194
0.037077 -0.036766 1.509145 200 211 194
0.038981 -0.087768 1.531285 195 161 134
0.032204 0.380778 1.277493 52 119 190
0.038332 -0.029856 1.508222 186 194 183
0.042825 0.094531 1.741093 97 104 96
0.041527 0.298247 1.289096 129 128 124
0.045991 0.032258 1.840091 40 51 43
0.036056 0.275688 1.394932 162 166 133
0.040800 -0.143483 1.568510 213 192 171
0.036400 0.281603 1.354174 46 45 40
0.037187 0.046857 1.442993 108 107 102
0.037209 0.292201 1.388147 32 33 28
0.040926 -0.013596 1.509019 162 172 163
0.040858 -0.009116 1.506810 142 148 146
0.045904 -0.123975 1.690828 153 135 125
0.041078 -0.034571 1.510038 103 110 102
0.055366 -0.007406 1.522507 214 187 176
0.041601 0.045518 1.522513 131 148 140
0.036030 0.342340 1.311783 30 30 54
0.041856 -0.022725 1.508748 175 186 170
0.042736 0.038444 1.517968 123 110 94
0.041991 0.010881 1.504154 59 74 77
0.043349 -0.038816 1.510843 197 201 186
0.043722 -0.044212 1.511982 165 150 129
0.044278 -0.089198 1.512187 209 205 193
0.050593 0.179475 1.580020 84 81 76
0.048411 0.153734 1.648322 84 81 76
0.045120 -0.041526 1.512702 93 84 85
0.047577 -0.044795 1.604788 182 188 174
0.038591 0.321889 1.266715 45 50 92
0.046959 0.289572 1.540562 25 31 47
0.046302 -0.006824 1.510055 159 172 165
0.046325 -0.010967 1.510184 161 165 164
0.049241 -0.079693 1.508428 222 226 203
0.047067 -0.074328 1.522164 168 147 126
0.082429 0.069123 1.767081 117 122 116
0.046889 0.003000 1.511748 52 50 51
0.039610 0.338155 1.275287 102 127 123
0.057485 -0.027678 1.484150 216 205 177
0.048034 -0.000474 1.511140 176 177 172
0.041555 0.339921 1.305819 40 29 69
0.042203 0.307244 1.312893 118 131 140
0.039817 0.289932 1.278516 118 131 140
0.048997 -0.045766 1.513624 169 150 133
0.041210 0.317924 1.268584 150 148 161
0.049939 0.017377 1.515503 99 75 73
0.070769 -0.029750 1.728210 219 227 214
0.049962 -0.041164 1.512753 158 160 139
0.049962 -0.041164 1.512753 158 160 139
0.060602 -0.115407 1.841635 158 132 117
0.050485 -0.004840 1.511627 77 87 78
0.051081 0.044961 1.524417 149 153 138
0.059482 0.246673 1.193386 45 72 67
0.047270 0.321246 1.366499 90 78 90
0.052290 -0.012593 1.511853 100 109 106
0.058758 -0.196396 1.693015 101 91 89
0.052910 0.004455 1.513374 95 100 93
0.053163 -0.047116 1.515092 175 154 135
0.053275 -0.009226 1.516686 142 149 142
0.053724 0.015656 1.515994 89 92 81
0.054044 0.041074 1.524123 75 66 57
0.055912 0.210838 1.574321 131 135 118
0.062545 0.244345 1.701542 131 135 118
0.053887 -0.034029 1.513334 175 179 164
0.050347 0.236903 1.498160 154 149 153
0.054956 -0.002129 1.513241 155 165 156
0.065157 -0.042093 1.684616 183 167 142
0.055311 -0.005871 1.514566 78 86 88
0.055311 -0.005871 1.514566 78 86 88
0.055930 -0.039335 1.515259 153 137 122
0.055866 0.004838 1.514232 141 150 145
0.055875 -0.009882 1.513180 162 170 159
0.060230 -0.094309 1.636245 192 170 156
0.057652 -0.099499 1.538290 171 161 151
0.056887 0.001252 1.514207 136 145 140
0.053108 -0.064610 1.385840 107 92 85
0.058646 0.040886 1.526226 147 151 134
0.058467 -0.013478 1.514394 108 114 104
0.065526 -0.006535 1.482067 188 171 143
0.059324 0.011262 1.517042 149 164 161
0.059679 0.004300 1.515762 113 123 112
0.059701 -0.017382 1.513923 155 169 154
0.060234 0.024591 1.520564 146 156 147
0.060388 -0.038098 1.516120 155 128 111
0.070822 -0.130358 1.735231 177 193 182
0.060224 -0.072065 1.397836 177 193 182
0.061618 -0.011195 1.515520 160 168 153
0.068383 -0.008201 1.697515 123 128 108
0.061942 -0.005464 1.515211 150 156 130
0.062336 -0.044602 1.517266 144 132 116
0.077248 -0.024879 1.762750 142 114 110
0.071285 -0.035072 1.614821 104 109 105
0.062819 -0.041428 1.517483 132 108 98
0.060342 -0.002075 1.293207 200 176 152
0.063072 0.015163 1.519163 103 127 113
0.069219 0.149579 1.655243 93 98 76
0.063831 -0.008733 1.517035 111 132 127
0.064679 0.044299 1.529729 148 166 154
0.062842 0.150373 1.243353 44 36 85
0.060203 -0.044223 1.371090 107 100 84
0.065452 -0.072107 1.527655 107 100 84
0.066111 0.067633 1.543199 48 47 45
0.065727 0.036243 1.526818 153 164 160
0.066564 0.070458 1.545605 46 51 45
0.066264 -0.064496 1.524241 170 154 139
0.053576 0.283457 1.346240 147 138 159
0.066890 0.037105 1.525305 150 169 167
0.065750 -0.007988 1.505140 128 137 134
0.066983 -0.033534 1.518287 178 192 169
0.059267 0.325237 1.344474 137 136 152
0.068099 0.042086 1.530264 125 133 136
0.068099 0.042086 1.530264 125 133 136
0.063705 0.281001 1.424836 32 31 37
0.068371 -0.010237 1.518654 101 106 100
0.068371 -0.010237 1.518654 101 106 100
0.059928 0.357757 1.289138 128 157 163
0.057679 0.352919 1.303195 83 78 110
0.059740 0.367689 1.284304 83 78 110
0.073279 -0.058312 1.580607 76 72 73
0.072730 0.079925 1.556681 77 73 72
0.075868 0.075172 1.638159 77 73 72
0.073044 0.216520 1.561132 64 82 68
0.060837 0.326152 1.297440 62 54 105
0.077340 0.055459 1.641598 68 86 96
0.061788 0.307954 1.314953 152 160 163
0.087049 -0.226641 1.846304 190 186 161
0.059374 0.367363 1.249335 50 116 176
0.072528 0.026513 1.525917 112 118 116
0.072539 -0.047844 1.522205 164 162 141
0.076512 0.070998 1.608680 67 59 56
0.073109 -0.054738 1.523138 96 91 87
0.086191 0.213850 1.863181 218 225 251
0.074498 -0.074164 1.531971 201 207 195
0.072225 -0.084873 1.464693 232 244 230
0.062355 0.316957 1.277971 162 163 183
0.079335 0.183999 1.381638 27 32 28
0.075376 -0.047705 1.523462 77 77 65
0.124350 0.123943 1.594347 105 103 88
0.069934 0.023220 1.439451 111 104 96
0.075926 -0.054322 1.525015 163 155 144
0.075882 -0.037118 1.523151 158 141 111
0.076095 -0.030533 1.521956 172 186 171
0.077886 0.055613 1.541689 71 65 65
0.088349 0.400882 1.804872 64 58 70
0.066886 0.304751 1.317381 131 141 143
0.092183 0.006887 1.657276 105 107 83
0.081785 -0.038442 1.625568 171 174 163
0.066963 0.335937 1.286438 121 149 152
0.137629 0.087874 1.673419 228 241 231
0.139316 0.071962 1.635078 215 217 193
0.090953 0.365566 1.592211 96 97 89
0.073589 0.139241 1.367243 80 84 87
0.139420 0.072108 1.634984 215 217 193
0.080947 -0.049217 1.526059 109 102 92
0.080879 -0.017523 1.524078 161 174 165
0.081093 -0.028325 1.523857 79 86 78
0.081785 -0.035703 1.524638 173 170 153
0.102040 0.140151 1.569449 133 127 141
0.079033 -0.094448 1.333992 143 130 114
0.082356 -0.051207 1.527201 146 149 128
0.082874 0.027320 1.531082 158 167 148
0.088015 -0.136271 1.626286 221 225 208
0.083244 0.023618 1.531680 124 140 140
0.083244 0.023618 1.531680 124 140 140
0.083120 -0.038556 1.525653 136 138 127
0.084931 0.003567 1.535973 148 151 134
0.070291 0.332363 1.287646 92 122 130
0.083339 -0.021808 1.524443 89 97 86
0.083536 -0.030367 1.524665 167 168 150
0.070206 0.316542 1.281622 157 153 168
0.068538 0.362877 1.239835 59 125 199
0.085617 0.030078 1.533765 121 135 135
0.085239 -0.015838 1.525571 58 63 66
0.085239 -0.015838 1.525571 58 63 66
0.095802 -0.203742 1.708557 81 70 66
0.096007 -0.202586 1.708415 85 62 54
0.086223 -0.010578 1.526231 89 104 99
0.076845 0.312886 1.348037 50 48 61
0.095908 -0.091132 1.672180 217 229 219
0.087317 -0.036099 1.527496 119 132 123
0.073575 0.320595 1.283512 52 54 93
0.095299 -0.028345 1.671696 154 168 168
0.101562 0.009441 1.705023 163 171 156
0.100537 -0.210086 1.710250 202 198 169
0.078532 0.304285 1.324171 98 88 112
0.077320 0.355010 1.297050 108 125 141
0.091833 -0.048188 1.533154 153 162 141
0.092028 -0.041128 1.530823 86 90 93
0.093572 -0.022342 1.532581 135 138 121
0.099236 0.033863 1.647017 54 53 58
0.077486 0.347699 1.314084 61 54 72
0.094003 -0.032830 1.530366 71 73 68
0.094324 -0.038216 1.532158 142 145 136
0.094324 -0.038216 1.532158 142 145 136
0.102134 -0.030385 1.670327 158 170 170
0.096113 0.038795 1.544959 104 129 126
0.096598 0.044928 1.548379 128 151 159
0.097381 -0.062789 1.540806 192 204 182
0.097293 -0.044423 1.535488 146 154 143
0.120524 0.066160 1.411694 92 91 99
0.085602 0.311520 1.351372 61 58 69
0.087396 0.238561 1.381818 183 189 177
0.118102 0.125721 1.234929 119 114 92
0.091839 0.191952 1.475987 56 57 59
0.099082 -0.057206 1.540097 184 186 165
0.108107 -0.030418 1.626418 123 137 120
0.100158 -0.039341 1.536475 160 154 130
0.101005 -0.050900 1.539585 142 135 117
0.102067 -0.040186 1.539388 163 150 131
0.086907 0.346038 1.299877 118 135 153
0.104733 -0.036710 1.539672 140 126 97
0.105015 -0.050747 1.542075 79 81 57
0.108131 0.406787 1.536291 37 38 92
0.105640 -0.054974 1.543318 176 167 158
0.113808 -0.107475 1.656715 144 146 143
0.088902 0.319751 1.290633 62 56 102
0.103134 -0.067696 1.495084 165 168 151
0.095832 -0.042183 1.385607 138 121 93
0.089782 0.314534 1.285255 170 154 167
0.107823 -0.037595 1.541823 57 53 44
0.109016 0.020499 1.547163 151 166 163
0.109016 0.020499 1.547163 151 166 163
0.092114 0.330606 1.297337 85 104 98
0.109870 -0.028535 1.542390 54 68 69
0.108553 -0.062786 1.526965 148 159 145
0.115227 -0.027511 1.582299 61 56 78
0.149835 0.125203 1.637987 69 69 71
0.110907 -0.026561 1.543771 53 64 60
0.105650 -0.026920 1.375226 150 163 156
0.092837 0.236893 1.337976 183 189 179
0.121690 0.077045 1.045149 98 78 79
0.094398 0.345151 1.302636 106 120 155
0.094398 0.345151 1.302636 106 120 155
0.094776 0.353965 1.304962 113 125 149
0.125865 -0.208355 1.719907 96 95 91
0.083137 0.297677 1.134510 136 164 176
0.120140 0.000960 1.634622 154 164 153
0.090009 0.352440 1.217573 39 114 179
0.089820 0.164700 1.258186 91 97 69
0.128537 -0.040381 1.742993 167 168 152
0.114963 -0.025859 1.547091 81 87 85
0.115013 0.061352 1.532962 101 99 123
0.094282 0.315623 1.248953 51 46 86
0.117049 -0.011396 1.546836 152 158 144
0.121428 -0.063666 1.420498 53 50 45
0.109266 -0.080139 1.413556 163 173 162
0.125563 -0.043381 1.639791 117 132 125
0.125036 0.002534 1.607838 160 180 171
0.146142 0.005864 1.658993 133 132 111
0.103307 0.296309 1.315090 173 170 165
0.123668 -0.055103 1.567666 154 165 157
0.122483 -0.032305 1.552514 161 172 164
0.123281 -0.042200 1.554332 177 189 169
0.096852 -0.118860 1.221728 118 98 100
0.123444 -0.042147 1.554095 177 189 169
0.124173 -0.026234 1.554469 123 128 108
0.125455 -0.071042 1.568496 105 107 106
0.125085 -0.029076 1.548182 72 88 87
0.125085 -0.029076 1.548182 72 88 87
0.126451 -0.039414 1.556827 171 181 172
0.105528 0.318217 1.298811 80 64 111
0.111702 -0.056430 1.371701 146 157 141
0.126941 -0.033437 1.554092 157 173 162
0.136767 -0.063988 1.667144 170 174 160
0.143338 -0.211560 1.752432 100 107 91
0.119380 0.036383 1.418576 155 165 154
0.120376 0.329454 1.464678 137 143 141
0.134434 0.143492 1.287096 152 176 188
0.109615 0.347517 1.308240 144 178 190
0.146601 -0.156396 1.741921 59 54 51
0.229534 0.083696 1.587644 186 183 166
0.149905 0.210753 1.764704 112 127 130
0.123810 0.194108 1.488310 164 168 167
0.142537 0.058197 1.123873 151 149 111
0.111810 0.317595 1.301089 89 62 107
0.134071 0.395884 1.513185 54 47 89
0.113604 0.336020 1.310008 112 128 154
0.119100 -0.016870 1.363220 109 140 161
0.105918 0.344613 1.201084 51 119 194
0.131541 0.112328 1.332254 201 213 209
0.120137 0.370032 1.311095 84 84 118
0.123804 0.306630 1.348164 117 136 130
0.124675 0.095451 1.287369 197 215 215
0.142849 0.313548 1.415392 176 191 198
0.122487 0.314391 1.322162 112 92 104
0.141495 0.163481 1.479213 159 169 158
0.134323 0.295624 1.405211 49 36 46
0.126697 0.312376 1.317088 121 102 124
0.127136 0.317234 1.307757 74 62 98
0.116211 0.339407 1.190424 49 98 157
0.138127 0.291818 1.412876 148 151 142
0.118469 0.338239 1.188087 47 89 139
0.119989 0.266988 1.187203 146 162 162
0.133683 0.358989 1.320639 54 48 60
0.148065 0.250345 1.395021 161 224 255
0.127156 0.273081 1.259826 126 158 171
0.130123 0.324629 1.213123 133 157 169
0.129921 0.272272 1.208504 150 165 170
0.143853 0.328748 1.283583 133 126 142
0.169608 0.298627 1.553350 107 133 166
0.154169 0.262978 1.444637 125 120 124
0.144378 0.299105 1.275222 106 93 113
0.193541 0.247489 1.702533 161 224 255
0.166046 0.271264 1.454617 109 133 157
0.131073 0.247424 1.094402 79 104 134
0.173360 0.295859 1.481292 69 98 102
0.151904 0.131918 1.264698 24 40 56
0.162236 0.303069 1.377401 74 75 77
0.165266 0.272432 1.397804 103 142 173
0.184434 0.367818 1.561295 173 161 163
0.169294 0.125894 1.318657 65 58 65
0.193246 0.328546 1.660214 136 135 140
0.162499 0.296647 1.351261 121 132 126
0.179575 0.301568 1.518087 130 141 147
0.182675 0.298464 1.511870 71 88 116
0.160460 0.314305 1.321480 62 56 92
0.163086 0.325215 1.335476 49 60 78
0.140236 0.206545 1.175043 139 139 129
0.202796 0.284441 1.574863 33 36 51
0.176860 0.217489 1.427838 33 36 51
0.226820 0.102899 1.464957 88 109 128
0.149559 0.267049 1.224232 48 61 80
0.166217 0.348485 1.331555 131 166 188
0.166217 0.348485 1.331555 131 166 188
0.169033 0.299813 1.349093 73 69 66
0.185128 0.251860 1.364740 203 217 228
0.188144 0.237702 1.507886 156 164 175
0.148649 0.323421 1.156803 64 133 210
0.190137 0.292133 1.507337 129 134 138
0.190137 0.292133 1.507337 129 134 138
0.182542 0.217580 1.415825 214 225 231
0.182542 0.217580 1.415825 214 225 231
0.177872 0.146640 1.390534 27 36 65
0.189211 0.249916 1.359149 214 232 246
0.185407 0.215805 1.415620 44 52 88
0.163933 0.171464 1.265312 99 112 121
0.176849 0.340008 1.337376 96 108 124
0.186497 0.343343 1.442370 112 128 144
0.189258 0.199226 1.425292 184 205 234
0.188343 0.217491 1.415282 186 206 215
0.168163 0.009730 1.132950 145 175 211
0.229433 0.305376 1.536070 145 175 211
0.186801 0.218715 1.334611 119 145 178
0.169250 0.198472 1.208755 119 145 178
0.197316 0.288430 1.445436 50 70 81
0.189443 0.283407 1.418444 59 68 73
0.195176 0.216083 1.417131 46 43 72
0.197525 0.218637 1.418832 126 126 134
0.182618 0.195041 1.324959 154 157 150
0.188376 0.324762 1.354112 45 51 103
0.196355 0.229218 1.405567 118 151 192
0.188774 0.351082 1.345708 110 131 148
0.233488 0.313094 1.530707 42 54 92
0.187415 0.313684 1.332365 50 46 83
0.203391 0.284954 1.440786 41 49 85
0.165412 0.198470 1.185391 20 24 33
0.193630 0.347268 1.347641 88 103 108
0.192330 0.310530 1.335032 147 147 157
0.193584 0.306656 1.337386 58 60 81
0.157092 0.269484 1.073635 120 143 149
0.164924 0.234992 1.124595 57 54 63
0.195718 0.252422 1.339172 41 46 66
0.198412 0.215175 1.315717 161 226 255
0.198844 0.305981 1.338066 117 114 121
0.210634 0.293506 1.409501 104 101 92
0.161563 0.267168 1.082176 126 160 159
0.179769 0.231033 1.208455 61 76 95
0.203159 0.355945 1.353592 63 59 76
0.208659 0.287478 1.369932 27 28 23
0.208680 0.152054 1.377701 175 203 206
0.162081 0.262887 1.048723 72 92 127
0.208538 0.146016 1.365788 148 172 184
0.207979 0.339012 1.347748 116 144 156
0.207979 0.339012 1.347748 116 144 156
0.209374 0.340779 1.355387 101 117 106
0.209998 0.335858 1.355305 122 156 183
0.223663 0.296999 1.420865 124 130 130
0.175499 0.270427 1.111878 107 133 132
0.175973 0.224648 1.113548 36 42 58
0.230321 0.139442 1.450435 179 199 206
0.217906 0.279220 1.349045 142 143 148
0.236024 0.297015 1.475171 128 126 127
0.188678 0.264631 1.162939 133 113 122
0.195783 0.300245 1.202363 137 170 179
0.184775 0.305387 1.119374 44 100 149
0.194737 0.275625 1.188909 123 141 145
0.225730 0.320314 1.360156 36 38 53
0.204740 0.273645 1.203689 193 178 175
0.232339 0.323066 1.363255 104 122 106
0.234026 0.354395 1.366643 53 39 64
0.281253 0.072422 1.461724 84 71 97
0.237386 0.323162 1.366356 100 117 109
0.264324 0.238587 1.518354 145 209 255
0.212813 0.272882 1.167854 129 158 166
0.190858 0.249251 1.029879 125 149 175
0.192358 0.252289 1.036790 125 149 175
0.209931 0.252106 1.119675 155 140 145
0.194425 0.208554 1.001368 146 215 255
0.229909 0.093561 1.080000 108 99 126
0.211606 0.248652 1.034091 129 151 149
0.289678 0.320142 1.397277 46 52 102
0.290984 0.348699 1.397819 107 119 135
0.263013 0.081154 1.154916 91 71 120
0.296114 0.343248 1.397238 84 102 104
0.325133 0.321254 1.497663 161 226 255
0.318438 0.124080 1.344871 99 120 141
0.246993 0.196047 1.134054 72 75 92
0.285866 0.272907 1.291042 159 147 161
0.417341 -0.133459 0.968337 131 145 158
0.436046 -0.182561 1.112331 123 142 148
0.402216 -0.081690 0.909152 192 203 221
0.450092 -0.205608 1.097852 173 190 200
0.451287 -0.079758 0.920911 227 240 255
0.514384 0.018027 1.088327 222 235 252
0.409613 -0.023510 0.850033 190 182 169
0.376099 0.222907 0.869022 182 182 208
0.534674 0.221900 0.967609 81 84 93
0.459451 0.190090 0.823335 180 177 184
