ply
format ascii 1.0
element vertex 501
property float x
property float y
property float z
property uchar diffuse_red
property uchar diffuse_green
property uchar diffuse_blue
end_header
-0.162952 0.118797 1.294519 200 187 168
-0.254897 -0.043690 1.576997 220 209 189
-0.317033 -0.140665 1.995152 153 153 155
-0.320460 0.240107 2.000308 153 222 255
-0.292146 -0.115453 1.870534 126 123 114
-0.288194 -0.117845 1.865716 130 115 120
-0.242294 -0.175505 1.563766 79 70 75
-0.242294 -0.175505 1.563766 79 70 75
-0.283622 0.161756 2.066969 62 60 65
-0.223270 0.194729 1.702932 77 75 88
-0.112803 -0.013966 0.835328 61 69 106
-0.365743 0.307897 2.525096 107 137 161
-0.277989 0.028912 1.994477 73 73 73
-0.265934 -0.061346 1.919241 100 100 92
-0.098314 0.108079 1.210393 101 85 86
-0.213888 -0.152711 1.557222 65 54 48
-0.213414 -0.066573 1.564158 54 45 46
-0.213264 -0.058882 1.564522 51 41 42
-0.213264 -0.058882 1.564522 51 41 42
-0.291506 0.328502 2.193950 132 108 122
-0.202914 0.087491 1.578233 121 109 111
-0.202775 0.114542 1.579672 139 114 117
-0.202474 0.105632 1.579647 128 112 112
-0.197507 0.409740 1.610459 72 93 158
-0.197832 -0.077590 1.568858 51 50 55
-0.175035 0.360242 1.477089 74 91 160
-0.247116 0.367569 2.191487 80 53 58
-0.185804 -0.012998 1.579424 128 109 115
-0.186096 0.122452 1.588133 69 63 65
-0.183761 -0.130581 1.573012 103 91 91
-0.184800 0.140767 1.588715 74 65 60
-0.200444 0.262886 1.756344 127 116 112
-0.181463 -0.108581 1.576943 116 103 95
-0.175681 -0.078938 1.580533 74 70 69
-0.175217 -0.094537 1.579753 62 52 51
-0.172258 -0.155363 1.576081 78 71 65
-0.171898 -0.003552 1.673702 63 55 53
-0.166020 -0.130454 1.581139 119 104 99
-0.110492 0.077128 1.619503 131 119 131
-0.157174 -0.088460 1.588258 77 62 69
-0.155618 0.401925 1.648170 77 96 165
-0.171915 0.220877 1.801704 165 157 170
-0.151133 -0.122637 1.588025 132 112 113
-0.135101 0.409227 1.504936 141 166 186
-0.147817 -0.179521 1.586241 106 81 74
-0.131415 0.380323 1.425080 56 85 153
-0.146406 -0.146181 1.588405 150 130 129
-0.144013 -0.142398 1.589628 69 63 75
-0.166832 0.220711 1.834416 163 165 164
-0.141576 -0.140431 1.591350 114 96 94
-0.071489 0.184173 1.272818 84 91 84
-0.158674 0.411695 1.851759 97 87 98
-0.153254 0.478483 1.848724 74 100 177
-0.136146 -0.148015 1.593830 67 66 72
-0.135956 -0.152189 1.595044 116 101 104
-0.168695 0.423171 1.974663 138 164 179
-0.126566 -0.138023 1.598325 109 95 94
-0.058339 0.164356 1.322564 41 41 43
-0.075678 0.267501 1.254608 198 182 149
-0.164477 0.162246 2.222472 72 51 56
-0.126290 0.010897 1.818716 139 114 107
-0.069641 -0.012114 1.379725 189 173 158
-0.110868 0.075757 1.755966 148 163 160
-0.122712 0.292339 1.873781 70 62 39
-0.127481 -0.052367 2.040761 66 93 102
-0.100555 -0.156334 1.609528 126 110 113
-0.063246 0.255893 1.309502 179 156 114
-0.088061 0.175486 1.484989 213 218 212
-0.087844 0.172484 1.486752 70 51 47
-0.087026 0.180391 1.486686 89 90 74
-0.073264 0.273533 1.510060 89 90 74
-0.092822 -0.156925 1.612273 115 106 97
-0.096574 -0.063989 1.674660 171 153 129
-0.088816 0.023345 1.623337 145 119 102
-0.114762 0.088289 2.027722 104 117 108
-0.105346 -0.014243 1.875006 103 109 95
-0.109543 -0.026288 1.975211 138 145 127
-0.090896 0.281706 1.640499 195 198 167
-0.083643 0.286904 1.657281 43 42 40
-0.082954 0.096413 1.513374 56 36 35
-0.083034 0.286573 1.656492 43 42 40
-0.088814 -0.067069 1.664500 171 150 131
-0.081785 -0.086422 1.568350 178 179 147
-0.076527 0.209865 1.467820 152 133 100
-0.037672 0.096214 1.389880 126 103 95
-0.075944 0.308325 1.542151 166 172 162
-0.091922 -0.029123 1.968521 63 87 97
-0.077139 -0.119323 1.636425 206 214 201
-0.073269 -0.077388 1.585071 192 172 147
-0.084138 -0.018986 1.908695 76 89 97
-0.070670 -0.188986 1.620905 128 108 117
-0.073652 0.173077 1.755081 36 34 35
-0.062925 -0.048066 1.536046 199 172 151
0.018402 0.144505 1.547876 132 142 144
-0.060989 0.030005 1.586971 104 92 76
-0.059328 0.178936 1.477224 138 140 116
-0.048455 0.358137 1.232099 130 163 170
-0.069772 0.012023 1.796827 86 73 64
-0.055806 0.184553 1.489247 99 107 84
-0.053532 0.195521 1.386398 119 111 108
-0.059066 -0.127808 1.612508 210 214 197
0.003112 0.133115 1.501727 191 169 148
-0.055261 0.311262 1.527602 204 208 183
-0.053386 0.256155 1.476918 53 60 70
-0.040630 0.354685 1.237648 99 103 112
-0.053447 -0.080803 1.633328 193 161 148
0.030549 0.150450 1.378134 200 205 182
-0.056618 0.056041 1.885767 135 160 154
-0.043885 0.210606 1.492376 30 37 29
-0.043885 0.210606 1.492376 30 37 29
-0.054866 0.409304 2.032568 148 155 183
-0.045109 -0.101177 1.595128 198 171 152
-0.010381 0.055732 1.307116 225 244 242
-0.019978 0.338034 1.611685 66 73 57
-0.039634 0.193916 1.493522 62 88 79
-0.038401 0.211634 1.425339 141 132 123
-0.037471 0.189184 1.497602 168 177 158
-0.026628 0.135615 0.993614 58 65 73
-0.037849 -0.090951 1.596901 172 145 126
-0.038096 -0.081005 1.598180 196 167 149
-0.037410 -0.189572 1.603666 176 164 148
-0.037508 0.142212 1.619478 66 62 59
-0.039948 -0.000228 1.734698 119 114 110
-0.033152 0.036580 1.507295 102 122 113
-0.035341 0.012329 1.775552 75 63 67
-0.035341 0.012329 1.775552 75 63 67
-0.037967 -0.005722 1.927152 135 146 142
-0.030249 -0.084701 1.533064 206 188 176
-0.032796 -0.041192 1.652141 159 136 122
-0.032436 0.224922 1.579758 81 78 95
-0.029553 -0.069174 1.588074 182 156 141
-0.021086 -0.045994 1.451396 211 223 213
-0.002053 0.096745 1.453378 163 141 128
-0.028231 -0.019546 1.669775 75 74 70
-0.028301 -0.060402 1.697083 89 77 63
-0.024854 -0.096955 1.595064 187 169 149
-0.019195 0.371421 1.241391 103 115 113
-0.014459 -0.082227 1.523753 103 111 113
-0.021831 -0.168649 1.602517 103 111 113
-0.011282 -0.041975 1.768737 234 238 213
-0.017502 0.018359 1.498366 62 61 59
-0.023821 0.056951 1.958470 46 56 48
-0.008471 0.081822 1.493910 193 169 135
-0.017484 -0.155586 1.603386 81 90 85
-0.020249 -0.039974 1.842710 125 120 114
-0.020121 -0.013081 1.800997 125 120 114
-0.014740 0.082452 1.529780 108 112 98
-0.015895 0.238719 1.438879 129 137 139
-0.010553 0.281941 1.322123 185 189 174
-0.008245 0.318435 1.244521 194 195 177
-0.009378 -0.178055 1.597553 101 116 135
-0.009491 -0.166377 1.617432 44 45 47
-0.005524 0.370595 1.247978 93 94 89
-0.005393 0.365096 1.228480 93 94 89
-0.006176 0.042079 1.667100 138 148 123
0.001491 0.001544 1.557837 184 165 148
0.002220 0.087017 1.454553 136 123 114
-0.004047 0.404691 1.600942 153 168 191
-0.002793 -0.039108 1.543756 167 152 129
-0.002242 0.012329 1.496058 138 126 104
0.000387 0.312607 1.352669 215 215 189
-0.000811 -0.048333 1.498407 191 173 151
-0.001081 -0.038304 1.546475 152 127 105
0.001429 0.163628 1.633844 30 26 23
0.001731 0.040614 1.506976 138 153 146
0.001968 0.364247 1.257444 55 49 77
0.002366 -0.025916 1.495319 95 82 65
0.002572 -0.019296 1.493972 181 181 171
0.002683 -0.046096 1.498160 120 104 89
0.002683 -0.046096 1.498160 120 104 89
0.002927 0.301258 1.305635 52 48 49
0.003860 -0.027773 1.494850 95 87 74
0.003860 -0.027773 1.494850 95 87 74
0.005248 0.004181 1.544874 52 63 59
0.048020 0.167923 1.640108 128 159 162
0.006704 -0.083410 1.617252 92 86 72
0.006755 -0.056906 1.502148 197 176 155
0.007438 0.172656 1.635480 156 151 132
0.007392 -0.056709 1.501369 198 178 154
0.007662 -0.021871 1.494819 85 66 68
0.008155 -0.042441 1.497167 168 157 135
0.007772 0.280847 1.333893 166 171 164
0.011096 -0.109942 1.697837 218 200 178
0.016634 0.276990 1.275310 57 53 42
0.010392 -0.029086 1.495213 195 196 190
0.009292 0.321440 1.249452 72 66 104
0.018731 0.195391 1.891418 230 240 241
0.009604 0.318711 1.249858 160 174 200
0.010047 0.301819 1.302923 175 182 166
0.013310 -0.146287 1.619410 171 162 155
0.011587 0.284890 1.334797 167 172 149
0.012516 0.057879 1.506035 49 60 52
0.016394 -0.086894 1.704947 163 139 127
0.014195 -0.026584 1.549682 156 146 144
0.014774 -0.070588 1.506753 196 176 152
0.016869 0.150914 1.627719 79 73 59
0.019870 -0.051019 1.896648 79 80 75
0.014591 0.284786 1.336225 61 62 54
0.016890 -0.005262 1.495133 143 135 132
0.018414 -0.038303 1.496926 167 156 138
0.030551 0.103741 1.398236 225 245 236
0.019163 -0.024675 1.494992 172 182 171
0.019571 -0.004721 1.495299 57 67 66
0.022807 0.091800 1.732858 96 108 96
0.021783 -0.066876 1.505074 163 132 111
0.021815 0.013725 1.498155 115 97 87
0.022415 -0.004055 1.495825 111 111 101
0.022750 -0.034531 1.497632 75 76 70
0.025553 -0.029912 1.495964 187 194 186
0.027650 0.008101 1.649527 86 88 77
0.029455 -0.078645 1.689854 184 153 132
0.026104 0.000270 1.495990 132 123 108
0.027462 -0.034278 1.497392 167 171 157
0.027551 -0.041145 1.498795 126 112 99
0.031356 -0.133111 1.697591 169 182 175
0.031356 -0.133111 1.697591 169 182 175
0.027701 -0.013131 1.496142 171 171 159
0.029070 0.013723 1.498275 141 115 98
0.024945 0.248486 1.409120 143 145 144
0.029925 -0.039600 1.498012 167 167 143
0.030161 -0.051860 1.500994 179 171 158
0.029200 0.254587 1.444587 187 202 207
0.033108 -0.086435 1.615177 182 169 152
0.028608 0.270762 1.416159 238 248 249
0.031475 -0.024103 1.497247 174 182 161
0.033243 0.047751 1.605663 68 75 67
0.034179 -0.101378 1.579143 114 103 99
0.032494 -0.004952 1.496641 143 126 100
0.032991 -0.087152 1.516352 216 218 215
0.032810 -0.045459 1.500033 129 106 100
0.033123 0.053264 1.513780 133 153 144
0.033687 -0.048616 1.501339 176 168 145
0.033687 -0.048616 1.501339 176 168 145
0.034639 -0.042126 1.499812 177 181 156
0.036918 -0.036388 1.499549 200 211 194
0.036918 -0.036388 1.499549 200 211 194
0.037094 -0.045353 1.500856 104 94 92
0.038163 -0.029436 1.498244 186 194 183
0.047296 0.030404 1.817812 40 51 43
0.047296 0.030404 1.817812 40 51 43
0.037564 -0.056140 1.447670 180 152 140
0.045031 -0.134693 1.676825 189 203 190
0.040600 -0.008806 1.496869 154 160 150
0.056853 -0.026911 1.734693 214 187 176
0.041559 0.045227 1.512066 131 148 140
0.041534 -0.022483 1.498836 176 182 170
0.047862 -0.136849 1.686932 231 236 216
0.043073 -0.038221 1.500805 197 201 186
0.051015 -0.101161 1.727303 179 153 138
0.044868 -0.040899 1.502632 93 84 85
0.044917 -0.032087 1.499854 182 188 174
0.041432 0.344582 1.343198 45 50 92
0.046604 0.286854 1.530733 25 31 47
0.046028 -0.010588 1.500334 161 165 164
0.046066 -0.006539 1.500170 159 172 165
0.046548 0.003207 1.501889 52 50 51
0.053189 0.370260 1.879535 153 163 172
0.047677 -0.000255 1.501281 162 165 146
0.042066 0.306131 1.307432 118 131 140
0.041072 0.317001 1.263816 150 148 161
0.049599 -0.040521 1.502738 158 160 139
0.050190 -0.059820 1.507948 158 132 117
0.050050 -0.004674 1.501688 84 99 92
0.050768 0.044715 1.514292 149 153 138
0.051380 -0.101758 1.529808 202 183 168
0.057950 -0.195491 1.680100 105 93 93
0.051952 -0.012205 1.501624 100 109 106
0.052801 -0.046422 1.504975 175 154 135
0.052855 -0.008883 1.506735 142 149 142
0.053200 0.015767 1.506113 89 92 81
0.053632 0.040983 1.514067 75 66 57
0.055416 0.208809 1.563952 131 135 118
0.045011 0.316545 1.266244 142 129 138
0.053573 -0.033443 1.503232 175 179 164
0.052166 0.234227 1.482855 154 149 153
0.054567 -0.001837 1.503144 155 165 156
0.073756 0.040323 1.524798 50 82 69
0.055505 0.004952 1.504215 141 150 145
0.055640 -0.038739 1.505035 161 145 130
0.055589 -0.009554 1.503110 162 170 159
0.056485 0.001553 1.504087 136 145 140
0.058242 0.040745 1.516144 108 115 99
0.058142 -0.013050 1.504281 108 114 104
0.058933 0.011539 1.506919 149 164 161
0.059319 0.004516 1.505866 113 123 112
0.059283 -0.016989 1.503734 155 169 154
0.059843 0.024622 1.510488 146 156 147
0.060004 -0.037507 1.506137 155 128 111
0.069957 -0.130028 1.721835 177 193 182
0.061288 0.022267 1.510852 110 118 120
0.084353 0.143590 1.114385 160 168 153
0.061180 -0.010852 1.505489 160 168 153
0.062181 0.062925 1.528996 123 128 108
0.061517 -0.005161 1.505166 150 156 130
0.062487 -0.040777 1.507225 132 108 98
0.068938 0.147617 1.642727 93 98 76
0.063265 -0.008375 1.507132 111 132 127
0.064277 0.044064 1.519522 148 166 154
0.059476 0.042957 1.416248 40 46 44
0.072411 -0.027046 1.605440 112 103 88
0.065426 0.070002 1.519417 56 54 55
0.066622 -0.033047 1.508067 178 192 169
0.067106 0.028212 1.513989 105 122 114
0.067276 -0.056999 1.513899 162 141 122
0.067090 -0.014111 1.507492 162 168 156
0.067739 0.041754 1.520062 125 133 136
0.067909 -0.009864 1.508573 101 106 100
0.068567 -0.066061 1.515235 101 93 90
0.072822 -0.057796 1.568998 76 72 73
0.061082 0.303992 1.311276 81 81 83
0.072181 0.079392 1.546158 77 73 72
0.072534 0.214515 1.551517 64 82 68
0.061557 0.306875 1.309447 152 160 163
0.060407 0.302644 1.285956 157 156 170
0.060407 0.302644 1.285956 157 156 170
0.072055 0.026532 1.515689 112 118 116
0.072087 -0.047106 1.511984 164 162 141
0.077126 -0.040085 1.608899 99 113 113
0.074047 -0.073250 1.521703 201 207 195
0.073688 -0.050287 1.512626 77 77 75
0.073688 -0.050287 1.512626 77 77 75
0.074939 -0.046902 1.513178 77 77 65
0.074939 -0.046902 1.513178 77 77 65
0.075437 -0.053572 1.514714 163 155 144
0.075359 -0.036553 1.512892 158 141 111
0.075607 -0.029965 1.511691 172 186 171
0.077415 0.055337 1.531256 71 65 65
0.066606 0.303657 1.311835 131 141 143
0.077047 -0.056067 1.516115 105 107 83
0.077047 -0.056067 1.516115 105 107 83
0.078072 -0.033805 1.513429 94 80 77
0.066679 0.334734 1.281324 121 149 152
0.080351 0.058300 1.536435 109 96 90
0.080351 0.058300 1.536435 109 96 90
0.134598 0.071638 1.635757 215 217 193
0.134722 0.071757 1.635616 215 217 193
0.080576 -0.027760 1.513671 79 86 78
0.081157 -0.035173 1.514468 173 170 153
0.081801 -0.050486 1.516869 146 149 128
0.082597 0.027173 1.520650 158 167 148
0.082851 0.023584 1.521309 124 140 140
0.082851 0.023584 1.521309 124 140 140
0.082580 -0.037921 1.515372 136 138 127
0.082663 -0.011610 1.515750 148 151 134
0.070014 0.331309 1.282929 65 81 78
0.082802 -0.021288 1.514233 89 97 86
0.084667 -0.015416 1.515348 58 63 66
0.095025 -0.202675 1.694629 81 70 66
0.085705 -0.030373 1.516260 167 170 153
0.087177 0.043091 1.532954 131 144 152
0.095022 -0.090714 1.659535 217 229 219
0.086907 -0.047736 1.519325 165 175 151
0.089799 -0.021726 1.398700 219 224 204
0.095494 -0.028454 1.655831 154 168 168
0.093965 0.020433 1.631078 157 170 161
0.099578 -0.208738 1.696726 205 201 172
0.078233 0.303175 1.318413 98 88 112
0.090768 -0.014766 1.519154 137 139 128
0.091097 -0.047915 1.522869 145 154 135
0.091525 -0.040501 1.520362 100 116 116
0.092624 0.032246 1.529956 58 78 76
0.092624 0.032246 1.529956 58 78 76
0.093015 -0.021865 1.522032 135 138 121
0.096699 0.114828 1.265292 157 153 167
0.093709 -0.037591 1.521837 142 145 136
0.101874 -0.026204 1.645876 152 154 140
0.095478 0.038737 1.534451 104 129 126
0.095614 -0.058689 1.531821 118 123 116
0.095614 -0.058689 1.531821 118 123 116
0.096837 -0.061982 1.530119 192 204 182
0.096664 -0.043695 1.525058 146 154 143
0.123652 0.066623 1.392151 100 99 105
0.098425 -0.056446 1.529618 184 186 165
0.098425 -0.056446 1.529618 184 186 165
0.098498 -0.047766 1.527333 101 105 91
0.086049 0.324060 1.333638 115 102 122
0.099531 -0.038686 1.526021 160 154 130
0.100312 -0.050197 1.529132 142 135 117
0.101434 -0.039595 1.528827 163 150 131
0.102724 -0.006625 1.527854 164 178 161
0.116198 -0.196291 1.701168 119 117 94
0.104906 -0.054152 1.532753 176 167 158
0.107006 -0.078821 1.528452 138 121 93
0.107119 -0.036939 1.531331 57 53 44
0.091605 0.329533 1.292439 85 104 98
0.108615 -0.061756 1.514368 148 159 145
0.092988 0.236106 1.330262 183 189 179
0.110732 -0.033083 1.533109 112 99 83
0.119651 0.079708 1.047644 98 78 79
0.094029 0.343803 1.297427 106 120 155
0.094029 0.343803 1.297427 106 120 155
0.120043 0.019762 1.647858 142 154 144
0.124980 -0.207182 1.705650 95 97 86
0.111693 -0.057752 1.481575 150 166 165
0.116471 0.235004 1.537081 151 145 129
0.119328 -0.034541 1.546380 167 173 169
0.148284 0.005793 1.634210 130 129 111
0.121678 -0.031733 1.541755 161 172 164
0.101875 0.339874 1.288589 115 140 181
0.122394 -0.041558 1.543661 174 186 166
0.096786 -0.116000 1.214691 118 98 100
0.123254 -0.025778 1.543751 123 128 108
0.137004 0.111091 1.256376 188 196 173
0.124578 -0.070176 1.557204 105 107 106
0.137142 -0.197241 1.712829 135 137 97
0.103891 0.324297 1.292518 43 54 100
0.124204 -0.028512 1.537645 72 88 87
0.124204 -0.028512 1.537645 72 88 87
0.105413 0.342371 1.301826 107 128 159
0.105086 0.317225 1.293629 80 64 111
0.125723 -0.038892 1.546198 171 181 172
0.111126 -0.054707 1.363985 146 157 141
0.138310 -0.067157 1.689701 170 174 160
0.126119 -0.032875 1.543305 157 173 162
0.132422 -0.029069 1.613820 141 149 138
0.107143 0.333876 1.300364 140 168 190
0.119677 0.327043 1.456100 137 143 141
0.131247 0.091582 1.027896 107 92 89
0.108051 0.324656 1.294181 50 51 108
0.109099 0.346089 1.303075 144 178 190
0.145775 -0.156216 1.729956 59 54 51
0.124631 0.192285 1.473650 164 168 167
0.140305 0.060643 1.125483 151 149 111
0.148954 0.207560 1.750175 112 127 130
0.148640 -0.201924 1.736675 103 101 88
0.111295 0.316545 1.295588 89 62 107
0.109734 0.317736 1.266927 57 56 116
0.113177 0.334656 1.304640 112 128 154
0.151175 -0.194897 1.733191 114 113 85
0.142699 -0.037412 1.598871 117 149 170
0.108957 -0.023837 1.223311 133 159 174
0.119633 0.368440 1.305750 88 80 103
0.120063 0.329712 1.305188 122 133 135
0.124920 0.299397 1.351215 84 80 105
0.122006 0.313203 1.316298 119 98 117
0.142750 0.161961 1.463614 159 169 158
0.123925 0.312531 1.302997 180 180 182
0.133638 0.294063 1.397832 49 36 46
0.126291 0.311176 1.311204 121 102 124
0.126497 0.316432 1.302751 74 62 98
0.131088 0.360328 1.310984 100 112 134
0.133103 0.357452 1.315226 54 48 60
0.129626 0.272413 1.204641 150 165 170
0.188768 0.021530 1.492571 169 224 255
0.140958 0.304778 1.293731 110 99 116
0.152550 0.270036 1.394122 107 133 166
0.170098 0.298159 1.545601 48 59 113
0.130779 0.248673 1.092897 63 89 90
0.130779 0.248673 1.092897 63 89 90
0.195701 0.246002 1.674788 70 93 161
0.152868 0.132514 1.254485 24 40 56
0.164523 0.271111 1.390379 103 142 173
0.158196 0.350650 1.324120 123 139 152
0.177372 0.292584 1.464989 73 90 120
0.160994 0.310879 1.318749 170 176 176
0.189239 0.321886 1.582257 69 90 117
0.199007 0.097417 1.580512 114 150 174
0.175878 0.216563 1.419808 25 34 77
0.165430 0.346908 1.325692 130 168 181
0.168249 0.298664 1.342648 73 69 66
0.188786 0.292611 1.506132 32 47 88
0.188442 0.235383 1.492591 156 164 175
0.185623 0.290041 1.452779 66 83 99
0.181591 0.216747 1.407947 214 225 231
0.181591 0.216747 1.407947 214 225 231
0.184435 0.214989 1.407703 44 52 88
0.187809 0.137820 1.260525 89 104 123
0.189683 0.214698 1.408170 44 62 108
0.159709 0.256144 1.136916 38 41 74
0.191991 0.217613 1.408277 183 200 208
0.189296 0.281377 1.407304 59 68 73
0.194138 0.215213 1.409143 33 49 98
0.195311 0.228409 1.398000 123 158 190
0.237737 0.027439 1.513313 51 78 131
0.188019 0.349446 1.339768 110 131 148
0.186354 0.312910 1.326636 43 44 75
0.198799 0.214652 1.411157 46 59 111
0.197205 0.246939 1.392513 111 140 182
0.165590 0.199206 1.179372 20 24 33
0.192743 0.305496 1.330960 58 60 81
0.224700 0.219623 1.568020 60 96 120
0.189401 0.062686 1.084944 53 52 70
0.198040 0.349310 1.344261 125 151 174
0.205456 0.344297 1.352590 101 122 151
0.162131 0.264243 1.047196 66 84 120
0.208558 0.146013 1.354825 148 172 184
0.208322 0.339210 1.348934 101 117 106
0.230048 0.138478 1.434257 179 199 206
0.222135 0.243628 1.410583 79 79 91
0.195549 0.299965 1.198157 137 170 179
0.205411 0.275422 1.207115 181 162 158
0.211513 0.280029 1.240618 114 103 117
0.231153 0.321541 1.356262 104 122 106
0.232842 0.352534 1.359946 53 39 64
0.200520 0.276385 1.165900 39 49 98
0.236106 0.321555 1.359076 100 117 109
0.252368 0.346342 1.350234 52 49 76
0.228286 0.281719 1.178885 139 166 183
0.210196 0.210158 1.037268 79 65 90
0.352132 0.093220 1.328504 96 81 124
0.518701 -0.087704 1.003093 233 243 253
