ply
format ascii 1.0
element vertex 509
property float x
property float y
property float z
property uchar diffuse_red
property uchar diffuse_green
property uchar diffuse_blue
end_header
-0.352087 -0.164481 2.260655 102 99 106
-0.199353 0.176838 1.461458 127 117 118
-0.266335 -0.012126 1.777388 161 226 255
-0.250645 -0.181395 1.624652 77 68 73
-0.316848 0.243356 2.418209 179 162 142
-0.186581 0.046840 1.507297 185 168 158
-0.304265 0.461679 2.093150 154 218 254
-0.303069 0.461670 2.091496 153 217 255
-0.284557 0.181300 2.219020 145 129 130
-0.164673 0.217027 1.407448 91 85 89
-0.421539 0.644235 2.876372 149 219 255
-0.276698 -0.066954 1.877936 128 119 124
-0.225462 0.220896 1.765999 140 130 139
-0.241867 0.196588 1.651959 100 91 118
-0.296825 -0.011031 2.092090 76 63 70
-0.366983 0.421826 2.672595 163 148 151
-0.226792 -0.100255 1.602817 106 96 97
-0.290643 -0.030757 2.064375 88 72 83
-0.274639 0.205441 1.948338 93 81 91
-0.222168 -0.158480 1.617314 65 54 48
-0.221667 -0.069193 1.624450 54 45 46
-0.221511 -0.060953 1.624625 51 41 42
-0.222704 0.172668 1.640776 137 119 119
-0.220764 -0.051202 1.625904 65 47 45
-0.210747 0.090856 1.638548 121 109 111
-0.210294 0.109931 1.640364 128 112 112
-0.169359 0.409550 1.357128 157 221 255
-0.206207 -0.151700 1.624003 60 59 55
-0.193451 0.403809 1.611395 135 157 178
-0.243816 -0.022196 2.070966 92 82 81
-0.188472 -0.112497 1.637080 116 103 95
-0.183048 -0.184888 1.633312 90 71 67
-0.202756 -0.041061 1.952331 130 108 111
-0.178782 0.285367 1.573206 64 95 177
-0.178831 -0.161014 1.636118 78 71 65
-0.178831 -0.161014 1.636118 78 71 65
-0.239082 0.569612 2.422958 48 44 41
-0.166588 0.198713 2.264545 69 60 65
-0.159547 -0.133751 1.647625 66 47 51
-0.156897 -0.127065 1.648191 132 112 113
-0.153850 -0.185778 1.646393 106 81 74
-0.141941 0.422218 1.553537 56 85 153
-0.151917 -0.151470 1.648404 150 130 129
-0.173517 0.377817 1.827263 141 173 186
-0.149444 -0.147507 1.649570 69 63 75
-0.146944 -0.145436 1.651319 114 96 94
-0.141308 -0.153351 1.653989 67 66 72
-0.130268 0.163555 2.199198 111 101 99
-0.137315 -0.013442 1.615580 63 69 65
-0.141115 -0.157709 1.655209 116 101 104
-0.060084 0.168387 1.360995 41 41 43
-0.127284 0.418349 2.006318 171 158 126
-0.117778 0.387675 1.584048 101 94 110
-0.086742 0.159074 1.655138 133 160 169
-0.135049 0.337682 1.891608 181 185 184
-0.134002 -0.053901 2.137860 66 93 102
-0.107778 -0.071839 1.743987 72 66 68
-0.091075 0.181273 1.535571 213 218 212
-0.100365 -0.066157 1.739178 171 153 129
-0.013983 0.077443 1.367994 197 175 161
-0.099298 0.217594 1.787875 185 188 177
-0.111457 -0.049493 2.031064 86 100 100
-0.095335 -0.014045 1.742094 144 150 148
-0.055932 0.208617 2.046681 61 98 140
-0.081185 0.219711 1.513978 45 44 39
-0.092421 -0.069352 1.728250 171 150 131
-0.084689 -0.089507 1.624946 178 179 147
-0.079089 0.216570 1.516741 152 133 100
-0.083209 -0.188640 1.678963 104 93 87
-0.075225 -0.074051 1.616602 184 162 141
-0.085244 0.201703 1.853619 223 233 209
-0.070731 0.201321 1.532460 160 156 127
-0.085656 -0.040218 1.937642 141 165 169
-0.088358 -0.019104 1.993072 76 89 97
-0.073281 -0.195757 1.681312 128 108 117
0.010225 0.133100 1.189168 166 175 174
-0.073998 0.193360 1.811835 34 30 27
-0.065219 -0.112544 1.627543 170 175 168
-0.062069 0.358802 1.559639 92 97 93
-0.057756 0.190622 1.539227 99 107 84
-0.053229 -0.112547 1.433802 139 133 121
-0.061077 -0.132283 1.671683 210 214 197
0.020246 0.105878 1.407275 81 63 59
0.031670 0.154421 1.416391 200 205 182
-0.038374 0.373949 1.274333 115 140 160
-0.049088 0.325344 1.716324 80 85 107
-0.057079 0.428828 2.122488 80 85 107
-0.047349 0.024290 1.754143 153 135 115
-0.011713 0.057258 1.348772 226 242 241
0.030788 0.101557 1.393630 87 63 61
-0.033933 0.295168 1.360009 157 161 173
-0.051257 0.270157 2.044112 126 146 137
-0.041854 -0.038696 1.744139 77 84 92
-0.035680 0.058123 1.653864 168 177 158
-0.039471 -0.083761 1.655578 196 167 149
-0.039018 -0.094006 1.653892 172 145 126
-0.029958 0.388605 1.271343 56 76 101
-0.036181 0.204482 1.544511 53 80 63
-0.041585 0.000118 1.802268 119 114 110
-0.037162 -0.067940 1.653729 176 145 127
-0.034533 -0.012782 1.650034 101 106 100
-0.034252 0.037713 1.558255 102 122 113
-0.044939 0.056573 1.992930 128 133 126
-0.036513 0.013191 1.844755 75 63 67
-0.024432 -0.049868 1.503478 207 216 199
-0.040238 -0.005254 2.012235 135 146 142
-0.014806 0.205730 1.460730 13 15 12
-0.021583 -0.047540 1.498119 211 223 213
-0.029240 -0.019945 1.731760 75 74 70
-0.029569 -0.062437 1.761939 89 77 63
-0.029569 -0.062437 1.761939 89 77 63
-0.025347 -0.063662 1.558331 193 177 151
-0.021894 0.293400 1.361960 52 51 46
-0.019962 0.381034 1.275906 103 115 113
-0.019962 0.381034 1.275906 103 115 113
-0.025462 -0.185505 1.645194 86 69 61
-0.016943 0.111869 1.373785 51 39 23
-0.021722 -0.027543 1.917788 170 142 121
-0.022551 -0.174433 1.660135 103 111 113
-0.021656 -0.166623 1.660086 27 41 41
-0.019814 -0.054776 1.551966 181 154 135
-0.020739 0.047405 1.558550 78 87 84
-0.018059 0.018873 1.548443 79 72 66
-0.014093 0.346917 1.280681 91 122 140
-0.018065 -0.161063 1.661260 81 90 85
-0.017364 -0.112857 1.805951 209 192 166
-0.016022 0.053980 1.765174 104 120 117
-0.002112 0.276226 1.282765 66 53 45
-0.011023 0.289664 1.360980 185 189 174
0.059375 0.087886 1.687340 105 130 150
-0.010726 -0.065317 1.682939 197 184 165
-0.007921 0.326901 1.280068 191 196 176
-0.009873 -0.184291 1.654637 101 116 135
-0.008773 -0.172298 1.678305 41 42 46
-0.006875 -0.058152 1.551792 186 172 159
0.019483 0.036131 1.511658 199 204 181
-0.002253 -0.060541 1.691364 207 194 178
-0.002153 -0.060642 1.691204 207 194 178
-0.004820 0.048634 1.729250 141 158 148
-0.004106 0.419037 1.656130 153 168 191
-0.003036 -0.040237 1.597292 167 152 129
-0.002424 0.012756 1.545860 138 126 104
0.000194 0.321386 1.392727 210 212 190
-0.000825 -0.027984 1.544677 152 127 105
0.001346 0.169708 1.692088 30 26 23
0.001306 0.041944 1.557684 138 155 147
0.007629 -0.083497 1.909463 221 230 211
0.002437 -0.026699 1.544852 95 82 65
0.001971 0.373849 1.292375 55 49 77
0.002584 -0.019942 1.543542 181 181 171
0.002747 -0.047642 1.547934 120 104 89
0.002747 -0.047642 1.547934 120 104 89
0.003360 0.002441 1.595155 63 74 70
0.048228 0.006356 1.958544 126 106 108
0.003775 -0.028391 1.544622 91 82 73
0.005056 0.004374 1.598722 52 63 59
0.005056 0.004374 1.598722 52 63 59
0.004420 0.334424 1.279338 48 50 88
0.006870 -0.058584 1.552058 197 176 155
0.007542 0.179164 1.693767 149 146 129
0.007468 -0.058523 1.551284 198 178 154
0.008157 0.047352 1.556911 132 139 123
0.009122 -0.106393 1.578046 213 182 154
0.007950 0.288598 1.372736 166 171 164
0.013410 -0.104017 1.881416 178 154 130
0.010763 -0.030068 1.544659 195 196 190
0.012418 -0.020706 1.766297 91 77 68
0.009450 0.329691 1.283976 72 66 104
0.010251 0.309943 1.340080 175 182 166
0.012697 0.028972 1.550380 60 59 54
0.011839 0.292829 1.373607 167 172 149
0.017056 -0.089805 1.768527 163 139 127
0.014630 0.078696 1.574193 132 140 119
0.013326 0.336480 1.574156 165 173 152
0.015173 -0.072951 1.556994 196 176 152
0.030881 0.341138 1.451909 115 118 101
0.016359 -0.034252 1.546788 79 80 75
0.014939 0.292646 1.375046 61 62 54
0.017766 -0.129220 1.611759 228 242 225
0.024916 0.047047 1.502206 39 75 75
0.017668 -0.009197 1.544399 142 137 133
0.018036 0.034754 1.551855 140 151 145
0.016755 0.181971 1.428859 152 151 131
0.030495 0.107185 1.443933 225 245 236
0.028047 0.427162 2.037620 225 245 236
0.017161 0.294019 1.378000 40 38 41
0.019846 -0.025512 1.544100 172 182 171
0.020213 -0.004957 1.544361 57 67 66
0.023564 0.095827 1.798712 96 108 96
0.023157 -0.108165 1.671344 159 138 137
0.022461 -0.069190 1.555043 163 132 111
0.018621 0.269569 1.313158 84 86 72
0.022620 0.014127 1.547056 127 113 104
0.023132 -0.004209 1.544845 111 111 101
0.023482 -0.035725 1.546906 75 76 70
0.024048 -0.052774 1.549075 196 178 166
0.021619 0.347135 1.298551 120 131 133
0.026465 -0.030884 1.545170 187 194 186
0.023228 0.327042 1.295304 143 129 142
0.040061 -0.089816 2.022974 134 110 100
0.028449 -0.035458 1.546413 167 171 157
0.028637 -0.013637 1.544900 171 171 159
0.035301 0.390544 1.959038 34 35 37
0.030196 0.014122 1.547040 141 115 98
0.036336 -0.132873 1.838483 219 231 209
0.036034 -0.086260 1.818190 108 93 86
0.031043 -0.053515 1.550837 179 171 158
0.027093 0.354216 1.353949 38 40 89
0.029932 0.262320 1.489887 187 202 207
0.029296 0.278962 1.459471 238 248 249
0.034211 -0.089354 1.672398 187 174 157
0.032708 -0.024909 1.545906 172 179 161
0.027519 0.346076 1.298462 115 136 137
0.034119 0.055017 1.563561 133 153 151
0.034818 -0.050259 1.550469 176 168 145
0.038728 -0.099541 1.685934 126 97 99
0.035814 -0.043550 1.548861 177 181 156
0.043104 0.052354 1.842562 47 54 38
0.038051 -0.037436 1.548136 200 211 194
0.038051 -0.037436 1.548136 200 211 194
0.032878 0.389226 1.307781 52 119 190
0.039337 -0.030349 1.547143 186 194 183
0.044396 0.096423 1.790012 97 104 96
0.048720 0.032150 1.891232 40 51 43
0.041897 -0.147129 1.610280 213 192 171
0.038121 0.299020 1.422059 32 33 28
0.041993 -0.013692 1.547922 162 172 163
0.041937 -0.009095 1.545575 142 148 146
0.042155 -0.035177 1.548981 103 110 102
0.038287 0.287802 1.403280 119 125 111
0.042686 0.046791 1.561969 131 148 140
0.042954 -0.023036 1.547605 175 186 170
0.043857 0.039567 1.557182 123 110 94
0.044484 -0.039519 1.549777 197 201 186
0.044865 -0.045050 1.550969 165 150 129
0.046299 -0.042296 1.551690 93 84 85
0.046386 -0.033165 1.548724 182 188 174
0.039471 0.329228 1.296387 45 50 92
0.048136 0.296428 1.580475 25 31 47
0.047532 -0.010985 1.549017 161 165 164
0.048300 -0.075938 1.561567 168 147 126
0.048109 0.003313 1.550633 52 50 51
0.040501 0.345799 1.305245 102 127 123
0.049285 -0.000238 1.549970 176 177 172
0.042499 0.347618 1.336754 40 29 69
0.043181 0.314331 1.344030 118 131 140
0.050275 -0.046629 1.552577 169 150 133
0.058609 -0.133008 1.795826 167 178 162
0.042155 0.325187 1.298247 150 148 161
0.051242 0.018030 1.554470 99 75 73
0.051264 -0.041907 1.551642 158 160 139
0.051264 -0.041907 1.551642 158 160 139
0.051799 -0.004702 1.550429 77 87 78
0.052410 0.046244 1.563753 149 153 138
0.053036 -0.105095 1.580665 212 193 179
0.053649 -0.012636 1.550634 100 109 106
0.060412 -0.202231 1.740916 101 91 89
0.054283 0.004817 1.552205 95 100 93
0.054547 -0.048003 1.554025 175 154 135
0.054668 -0.009203 1.555645 142 149 142
0.055119 0.016278 1.554914 89 92 81
0.055443 0.042275 1.563399 75 66 57
0.057334 0.215938 1.615691 131 135 118
0.055245 -0.009381 1.554839 144 149 145
0.055288 -0.034587 1.552164 175 179 164
0.053514 0.242018 1.531635 154 149 153
0.056383 -0.001917 1.552021 155 165 156
0.056748 -0.005752 1.553399 78 86 88
0.056748 -0.005752 1.553399 78 86 88
0.057383 -0.040023 1.554142 153 137 122
0.057320 0.005216 1.553021 141 150 145
0.057324 -0.009853 1.551948 162 170 159
0.061971 -0.096942 1.680627 192 170 156
0.058361 0.001547 1.552993 136 145 140
0.049589 0.341720 1.295454 115 141 138
0.060167 0.042090 1.565486 147 151 134
0.059981 -0.013530 1.553168 108 114 104
0.060860 0.011794 1.555897 149 164 161
0.061224 0.004672 1.554556 113 123 112
0.061248 -0.017521 1.552648 155 169 154
0.061793 0.025431 1.559549 146 156 147
0.061952 -0.038743 1.554950 155 128 111
0.067045 -0.048790 1.642954 156 130 115
0.072640 -0.134574 1.785697 177 193 182
0.063213 -0.011186 1.554273 160 168 153
0.063544 -0.005315 1.553940 150 156 130
0.063951 -0.045403 1.556113 144 132 116
0.078669 -0.026187 1.816181 142 114 110
0.064447 -0.042151 1.556325 132 108 98
0.064704 0.015793 1.558030 103 127 113
0.065483 -0.008662 1.555809 111 132 127
0.067146 -0.073617 1.566958 107 100 84
0.067830 0.069444 1.583038 48 47 45
0.067427 0.037357 1.565960 153 164 160
0.055682 0.289801 1.376547 147 138 159
0.067523 -0.007842 1.543112 128 137 134
0.068717 -0.034053 1.557068 178 192 169
0.069856 0.043335 1.569520 125 133 136
0.069856 0.043335 1.569520 125 133 136
0.065235 0.287622 1.459607 32 31 37
0.070136 -0.010194 1.557412 101 106 100
0.070136 -0.010194 1.557412 101 106 100
0.061269 0.365743 1.319094 128 157 163
0.061071 0.375847 1.314108 83 78 110
0.075315 -0.059686 1.621933 76 72 73
0.074895 0.221778 1.601514 64 82 68
0.062232 0.333564 1.327608 62 54 105
0.063218 0.315041 1.345693 152 160 163
0.089685 -0.234397 1.902530 190 186 161
0.060683 0.375475 1.278008 50 116 176
0.074397 0.027420 1.564891 112 118 116
0.074411 -0.048706 1.561079 164 162 141
0.075003 -0.055769 1.562031 96 91 87
0.090345 0.218373 1.913181 218 225 251
0.076418 -0.075711 1.571312 201 207 195
0.063787 0.324183 1.307427 162 163 183
0.077316 -0.048559 1.562347 77 77 65
0.077884 -0.055342 1.563957 163 155 144
0.077833 -0.037713 1.562000 158 141 111
0.078054 -0.030962 1.560730 172 186 171
0.079894 0.057179 1.581247 71 65 65
0.068439 0.311774 1.348072 131 141 143
0.068487 0.343511 1.316093 121 149 152
0.139661 0.074612 1.688242 215 217 193
0.139771 0.074763 1.688129 215 217 193
0.083033 -0.050097 1.564937 109 102 92
0.082956 -0.017631 1.562841 161 174 165
0.083178 -0.028691 1.562614 79 86 78
0.083886 -0.036248 1.563429 173 170 153
0.079992 -0.095684 1.367123 143 130 114
0.084474 -0.052137 1.566117 146 149 128
0.085003 0.028263 1.570078 158 167 148
0.090412 -0.139864 1.669949 221 225 208
0.085383 0.024472 1.570699 124 140 140
0.085383 0.024472 1.570699 124 140 140
0.085257 -0.039169 1.564464 136 138 127
0.086900 0.003929 1.575804 148 151 134
0.071892 0.339869 1.317257 92 122 130
0.085477 -0.022012 1.563180 89 97 86
0.085682 -0.030777 1.563412 167 168 150
0.070053 0.370881 1.267972 59 125 199
0.087816 0.031086 1.572824 121 135 135
0.087424 -0.015896 1.564318 58 63 66
0.087424 -0.015896 1.564318 58 63 66
0.098498 -0.209729 1.756662 81 70 66
0.088437 -0.010509 1.564967 89 104 99
0.078646 0.320073 1.379567 50 48 61
0.098442 -0.093764 1.718354 217 229 219
0.089559 -0.036644 1.566305 119 132 123
0.089749 -0.049245 1.568579 165 175 151
0.092721 -0.022576 1.439199 219 224 204
0.075256 0.327881 1.312891 52 54 93
0.098592 -0.029228 1.715120 154 168 168
0.103355 -0.216252 1.758429 202 198 169
0.080350 0.311298 1.354829 98 88 112
0.095335 0.168435 1.535384 80 81 83
0.079063 0.362926 1.326839 108 125 141
0.086520 0.029030 1.434503 96 102 102
0.094193 -0.049034 1.572145 153 162 141
0.094386 -0.041793 1.569705 86 90 93
0.095970 -0.022555 1.571489 135 138 121
0.079568 0.355356 1.343820 61 54 72
0.096417 -0.033283 1.569155 71 73 68
0.096737 -0.038808 1.571063 142 145 136
0.096737 -0.038808 1.571063 142 145 136
0.105588 -0.031290 1.713586 158 170 170
0.098574 0.040008 1.584327 104 129 126
0.099074 0.046277 1.587885 128 151 159
0.099883 -0.064006 1.580080 192 204 182
0.099789 -0.045168 1.574480 146 154 143
0.101623 -0.058277 1.579302 184 186 165
0.102680 0.042314 1.588750 129 148 154
0.101882 -0.035411 1.575142 103 92 74
0.103591 -0.051808 1.578722 142 135 117
0.104680 -0.040827 1.578478 163 150 131
0.088871 0.353784 1.329523 118 135 153
0.107411 -0.037259 1.578717 140 126 97
0.107701 -0.051647 1.581255 79 81 57
0.108344 -0.055981 1.582547 176 167 158
0.116959 -0.110357 1.701250 144 146 143
0.090925 0.327013 1.319886 62 56 102
0.098307 -0.042191 1.417605 138 121 93
0.091823 0.321698 1.314303 170 154 167
0.110578 -0.038163 1.580914 57 53 44
0.111801 0.021311 1.586393 151 166 163
0.111801 0.021311 1.586393 151 166 163
0.094202 0.338066 1.326755 85 104 98
0.112675 -0.028878 1.581454 54 68 69
0.120100 -0.092925 1.671078 206 213 195
0.113740 -0.026859 1.582873 53 64 60
0.095526 0.242478 1.367630 183 189 179
0.122421 0.080533 1.068951 98 78 79
0.096528 0.352875 1.332197 106 120 155
0.096528 0.352875 1.332197 106 120 155
0.096908 0.361849 1.334603 113 125 149
0.129393 -0.214428 1.768178 96 95 91
0.091989 0.360201 1.244471 39 114 179
0.092550 0.169044 1.284767 91 97 69
0.132339 -0.041813 1.791162 167 168 152
0.117896 -0.026139 1.586277 81 87 85
0.123138 -0.064422 1.457446 53 50 45
0.122000 -0.021523 1.588649 133 134 128
0.129303 -0.044419 1.681974 117 132 125
0.125605 -0.032736 1.591829 161 172 164
0.126428 -0.042877 1.593733 177 189 169
0.126595 -0.042821 1.593479 177 189 169
0.125803 -0.010758 1.583552 122 141 139
0.127339 -0.026520 1.593834 123 128 108
0.128677 -0.072489 1.608595 105 107 106
0.128256 -0.029402 1.587263 72 88 87
0.128256 -0.029402 1.587263 72 88 87
0.107913 0.325447 1.327956 80 64 111
0.130170 -0.033887 1.593414 157 173 162
0.147390 -0.217902 1.802340 100 107 91
0.123250 0.337076 1.499683 137 143 141
0.135881 0.147981 1.318649 152 176 188
0.112075 0.355273 1.337638 144 178 190
0.153988 0.215972 1.813577 112 127 130
0.128267 0.198552 1.520472 164 168 167
0.143623 0.061275 1.150098 151 149 111
0.114331 0.324812 1.330168 89 62 107
0.116161 0.343570 1.339362 112 128 154
0.108224 0.352200 1.227085 51 119 194
0.125089 0.309424 1.382939 133 142 139
0.122805 0.378175 1.340361 84 84 118
0.126623 0.313691 1.378646 117 136 130
0.129160 0.098573 1.311346 197 215 215
0.137434 0.302533 1.437612 49 36 46
0.129980 0.324445 1.336722 74 62 98
0.118718 0.346885 1.215856 49 98 157
0.141353 0.298653 1.445443 148 151 142
0.135953 0.341800 1.325284 140 138 151
0.121020 0.345693 1.213395 47 89 139
0.136649 0.366942 1.349924 54 48 60
0.156394 0.140687 1.378146 130 148 148
0.132940 0.331869 1.238895 133 157 169
0.146592 0.336332 1.312191 133 126 142
0.177408 0.302885 1.515994 69 98 102
0.156689 0.135700 1.287881 24 40 56
0.169035 0.278914 1.429259 103 142 173
0.188877 0.376398 1.598986 173 161 163
0.198814 0.336065 1.700273 136 135 140
0.180926 0.222949 1.460338 33 36 51
0.169861 0.356251 1.360498 131 166 188
0.169861 0.356251 1.360498 131 166 188
0.172790 0.306753 1.378610 73 69 66
0.193987 0.242968 1.539294 156 164 175
0.151760 0.330576 1.180471 64 133 210
0.195068 0.298863 1.541474 129 134 138
0.195068 0.298863 1.541474 129 134 138
0.186721 0.223044 1.447676 214 225 231
0.186721 0.223044 1.447676 214 225 231
0.182731 0.150540 1.419229 27 36 65
0.192602 0.256381 1.390636 214 232 246
0.189644 0.221240 1.447412 44 52 88
0.180719 0.347633 1.366292 96 108 124
0.193593 0.204346 1.457430 184 205 234
0.190128 0.305674 1.412572 97 98 118
0.195036 0.220955 1.447757 44 62 108
0.247767 0.110569 1.454695 95 113 125
0.233628 0.313562 1.575566 145 175 211
0.190493 0.224392 1.364295 119 145 178
0.194619 0.289675 1.447826 59 68 73
0.199615 0.221538 1.448788 46 43 72
0.200595 0.214355 1.450583 115 144 178
0.192526 0.332139 1.383355 45 51 103
0.200788 0.234926 1.436728 118 151 192
0.192880 0.358909 1.374673 110 131 148
0.238940 0.060453 1.554457 92 120 167
0.202644 0.253985 1.430963 111 140 182
0.169483 0.203521 1.208118 20 24 33
0.197839 0.355030 1.376568 88 103 108
0.196515 0.317645 1.363536 147 147 157
0.202448 0.220742 1.344085 161 226 255
0.162231 0.274999 1.092818 119 138 152
0.203164 0.313022 1.366539 117 114 121
0.215329 0.300423 1.440472 104 101 92
0.164892 0.273435 1.103325 126 160 159
0.207555 0.363865 1.382537 63 59 76
0.256257 0.037636 1.502002 162 190 204
0.165256 0.269136 1.069207 72 92 127
0.214074 0.149962 1.392442 148 172 184
0.212466 0.346634 1.376385 116 144 156
0.212466 0.346634 1.376385 116 144 156
0.213902 0.348445 1.384274 101 117 106
0.214541 0.343440 1.384180 122 156 183
0.184052 0.230181 1.176981 59 71 85
0.228640 0.304004 1.452022 124 130 130
0.179049 0.276755 1.133612 107 133 132
0.236780 0.143100 1.478796 179 199 206
0.192521 0.270883 1.185848 133 113 122
0.199889 0.307014 1.226162 137 170 179
0.188486 0.312215 1.141155 44 100 149
0.237326 0.330450 1.391982 104 122 106
0.239031 0.362313 1.395435 53 39 64
0.271042 0.244260 1.550819 145 209 255
0.266564 0.095469 1.338052 162 136 139
0.194620 0.255264 1.049014 125 149 175
0.214065 0.258169 1.140860 155 140 145
0.197870 0.214115 1.020191 146 215 255
0.203938 0.257701 1.064617 112 147 167
0.265499 0.314929 1.301102 123 140 147
0.235308 0.097471 1.096643 108 99 126
0.215713 0.254645 1.052842 129 151 149
0.295804 0.327582 1.426222 46 52 102
0.297115 0.356618 1.426710 107 119 135
0.302339 0.351079 1.426019 84 102 104
0.414753 -0.019932 0.861420 190 182 169
0.381976 0.228626 0.880568 182 182 208
